# .PCD v0.7 - Point Cloud Data file format
VERSION 0.7
FIELDS x y z intensity ring time
SIZE 4 4 4 4 2 4
TYPE F F F F U F
COUNT 1 1 1 1 1 1
WIDTH 1221
HEIGHT 1
VIEWPOINT 0 0 0 1 0 0 0
POINTS 1221
DATA ascii
2.6339791 0.32202992 7.5755765e-05 0 23 0
2.6963944 0.3296608 0.063314363 0 24 0
2.7546847 0.33678734 0.1293571 0 25 0
2.8266592 0.34558696 0.19924493 0 26 0
2.9157991 0.35648519 0.27435738 0 27 0
3.0144389 0.36854488 0.35510647 0 28 0
3.1142862 0.38075218 0.44110671 0 29 0
3.2465706 0.39692524 0.53774309 0 30 0
3.4264855 0.41892162 0.65039152 0 31 0
1.0458493 0.14308549 -0.62601656 0 0 0
1.1013141 0.15067379 -0.62471539 0 1 0
1.1729457 0.16047391 -0.62955225 0 2 0
1.2271266 0.16788654 -0.62209916 0 3 0
1.3079436 0.17894334 -0.6250304 0 4 0
1.3957273 0.19095327 -0.62727237 0 5 0
1.4838327 0.20300722 -0.62552118 0 6 0
1.5893532 0.21744375 -0.62656885 0 7 0
1.7039171 0.23311757 -0.62600631 0 8 0
1.8087087 0.24745438 -0.61678237 0 9 0
1.8780477 0.25694084 -0.5916478 0 10 0
1.9469292 0.26636472 -0.56350851 0 11 0
2.0024855 0.27396551 -0.5290069 0 12 0
2.0536113 0.28096017 -0.4912684 0 13 0
2.1124086 0.28900442 -0.45320061 0 14 0
2.151809 0.29439488 -0.40907085 0 15 0
2.2164445 0.30323783 -0.36766905 0 16 0
2.2528672 0.30822092 -0.31955528 0 17 0
2.3020241 0.3149462 -0.27155143 0 18 0
2.3619041 0.32313856 -0.22251464 0 19 0
2.3974228 0.32799795 -0.16916375 0 20 0
2.4345603 0.33307886 -0.11439593 0 21 0
2.5052862 0.34275508 -0.058791641 0 22 0
2.5768824 0.35255033 7.425114e-05 0 23 0
2.6332464 0.36026165 0.061946318 0 24 0
2.7115326 0.37097219 0.12756699 0 25 0
2.7784147 0.38012251 0.1962077 0 26 0
2.8487632 0.38974708 0.26854718 0 27 0
2.9375789 0.40189821 0.34669438 0 28 0
3.0485756 0.41708398 0.43260074 0 29 0
3.1546581 0.43159738 0.52348882 0 30 0
3.3286214 0.45539778 0.63298804 0 31 0
1.0378648 0.15715632 -0.62251997 0 0 0
1.0967653 0.16607518 -0.62341964 0 1 0
1.1568788 0.17517775 -0.6222108 0 2 0
1.2249093 0.18547909 -0.62225723 0 3 0
1.3028766 0.19728512 -0.62389451 0 4 0
1.402783 0.21241322 -0.6317451 0 5 0
1.4767424 0.22361235 -0.62381756 0 6 0
1.5808561 0.23937753 -0.62450588 0 7 0
1.6985583 0.25720033 -0.62532598 0 8 0
1.7850684 0.27029991 -0.60997772 0 9 0
1.8463819 0.27958417 -0.58287299 0 10 0
1.9345505 0.29293489 -0.56108183 0 11 0
1.9782989 0.29955938 -0.52369642 0 12 0
2.0352225 0.30817893 -0.48787469 0 13 0
2.0736926 0.31400418 -0.445813 0 14 0
2.1321247 0.3228521 -0.40616566 0 15 0
2.1740208 0.32919616 -0.36137632 0 16 0
2.2177043 0.33581081 -0.31521714 0 17 0
2.2660947 0.34313822 -0.26786506 0 18 0
2.3069823 0.34932953 -0.2177892 0 19 0
2.3756852 0.35973272 -0.16797605 0 20 0
2.4221532 0.36676905 -0.11404794 0 21 0
2.4741204 0.37463802 -0.058180146 0 22 0
2.5528038 0.38655248 7.3709205e-05 0 23 0
2.6021643 0.39402679 0.061341513 0 24 0
2.666724 0.40380257 0.12571797 0 25 0
2.7414451 0.41511708 0.19399668 0 26 0
2.801147 0.42415729 0.2646037 0 27 0
2.8747296 0.43529937 0.33997738 0 28 0
2.983973 0.45184132 0.42430776 0 29 0
3.0738294 0.46544763 0.5111292 0 30 0
3.2130399 0.48652723 0.61227006 0 31 0
1.1006991 0.1828219 -0.62707889 0 1 0
1.1551553 0.19186687 -0.62269711 0 2 0
1.2258379 0.20360701 -0.62414557 0 3 0
1.2951711 0.21512297 -0.62161547 0 4 0
1.3883688 0.23060276 -0.62667596 0 5 0
1.4775288 0.24541189 -0.62556958 0 6 0
1.583352 0.26298869 -0.62691468 0 7 0
1.6608968 0.27586859 -0.61285174 0 8 0
1.7724148 0.29439133 -0.60703158 0 9 0
1.8077505 0.30026045 -0.57197583 0 10 0
1.8872139 0.31345901 -0.54859775 0 11 0
1.9349787 0.32139257 -0.51339388 0 12 0
2.0156183 0.3347865 -0.48427436 0 13 0
2.0671005 0.34333751 -0.44540668 0 14 0
2.0949914 0.34797007 -0.39999968 0 15 0
2.142499 0.35586089 -0.35694674 0 16 0
2.1991506 0.3652705 -0.31329098 0 17 0
2.2369952 0.37155634 -0.26502684 0 18 0
2.2966168 0.38145927 -0.21730384 0 19 0
2.3103387 0.38373843 -0.16372722 0 20 0
2.3646088 0.39275247 -0.1115917 0 21 0
2.4425704 0.40570161 -0.057568893 0 22 0
2.5112212 0.41710421 7.2673494e-05 0 23 0
2.563957 0.42586347 0.060578335 0 24 0
2.6428509 0.43896741 0.12487593 0 25 0
2.7065959 0.44955522 0.19196628 0 26 0
2.7619367 0.45874712 0.26149327 0 27 0
2.8359246 0.47103626 0.33615109 0 28 0
2.9312489 0.48686922 0.41775873 0 29 0
3.0088491 0.49975833 0.5014621 0 30 0
3.109251 0.51643467 0.59384 0 31 0
1.111737 0.20104603 -0.6349417 0 1 0
1.1643614 0.21056259 -0.62921989 0 2 0
1.2211488 0.22083202 -0.62330359 0 3 0
1.3036184 0.23574579 -0.62722504 0 4 0
1.3809294 0.24972667 -0.62486738 0 5 0
1.4759299 0.2669065 -0.62644589 0 6 0
1.5726448 0.28439641 -0.62422305 0 7 0
1.6453067 0.29753655 -0.60860831 0 8 0
1.7442389 0.31542739 -0.59886658 0 9 0
1.7912338 0.32392594 -0.56815869 0 10 0
1.8674818 0.33771461 -0.54421121 0 11 0
1.9287792 0.34879962 -0.51302111 0 12 0
1.9762242 0.35737953 -0.4759897 0 13 0
2.0305078 0.36719614 -0.43860945 0 14 0
2.0684514 0.37405786 -0.39591408 0 15 0
2.1057367 0.38080052 -0.35169408 0 16 0
2.1540649 0.38954017 -0.3076309 0 17 0
2.2055168 0.39884469 -0.26194698 0 18 0
2.2561014 0.40799239 -0.21400096 0 19 0
2.307904 0.41736037 -0.16396125 0 20 0
2.3376727 0.42274371 -0.11059475 0 21 0
2.4075017 0.43537158 -0.05688341 0 22 0
2.4428382 0.44176179 7.087025e-05 0 23 0
2.5263727 0.45686814 0.059838705 0 24 0
2.5964637 0.4695434 0.12298908 0 25 0
2.6609948 0.48121312 0.18920115 0 26 0
2.7090878 0.48991024 0.25712723 0 27 0
2.7909622 0.5047164 0.33164391 0 28 0
2.8690288 0.51883394 0.40990758 0 29 0
2.9470599 0.53294504 0.49238509 0 30 0
3.0559912 0.55264413 0.58511871 0 31 0
1.104087 0.2160251 -0.63227379 0 1 0
1.1499581 0.22500022 -0.62311298 0 2 0
1.2158659 0.23789568 -0.62228137 0 3 0
1.2984214 0.25404844 -0.62640989 0 4 0
1.3915362 0.27226725 -0.63136566 0 5 0
1.4720961 0.28802955 -0.62650436 0 6 0
1.5569985 0.30464152 -0.61967993 0 7 0
1.6246172 0.31787175 -0.60257643 0 8 0
1.7193614 0.33640936 -0.59191775 0 9 0
1.7733489 0.34697253 -0.56400335 0 10 0
1.8377184 0.35956702 -0.53698254 0 11 0
1.8986695 0.37149268 -0.5063749 0 12 0
1.9512249 0.38177565 -0.47123632 0 13 0
2.0009339 0.39150167 -0.43338725 0 14 0
2.0500498 0.40111166 -0.3934505 0 15 0
2.0901644 0.40896049 -0.35003504 0 16 0
2.1416476 0.41903365 -0.30668268 0 17 0
2.1738605 0.42533639 -0.25888374 0 18 0
2.2289717 0.43611944 -0.21199799 0 19 0
2.2614899 0.44248191 -0.16109727 0 20 0
2.3158257 0.45311326 -0.10985676 0 21 0
2.3747261 0.46463767 -0.056260373 0 22 0
2.4298067 0.47541469 7.068237e-05 0 23 0
2.4842427 0.48606563 0.058999576 0 24 0
2.5519092 0.49930522 0.12120473 0 25 0
2.6312959 0.51483798 0.18759425 0 26 0
2.6940849 0.52712327 0.2563931 0 27 0
2.7643685 0.5408749 0.32937002 0 28 0
2.8280427 0.5533334 0.40514189 0 29 0
2.8968296 0.56679219 0.48529848 0 30 0
2.9777598 0.58262694 0.57167822 0 31 0
1.08632 0.2287384 -0.62391025 0 1 0
1.1590103 0.24404426 -0.62984622 0 2 0
1.225403 0.25802407 -0.62898821 0 3 0
1.2937487 0.27241516 -0.62597269 0 4 0
1.3795871 0.29048949 -0.62776637 0 5 0
1.4793804 0.31150222 -0.6314373 0 6 0
1.5685356 0.33027497 -0.62608904 0 7 0
1.6167777 0.34043297 -0.60141444 0 8 0
1.6887935 0.35559681 -0.58308679 0 9 0
1.7513492 0.36876869 -0.55862802 0 10 0
1.8093746 0.38098666 -0.53023958 0 11 0
1.8687881 0.39349696 -0.49985647 0 12 0
1.9240012 0.40512276 -0.4660143 0 13 0
1.9740018 0.41565099 -0.42879865 0 14 0
2.027739 0.42696607 -0.3903015 0 15 0
2.0550811 0.43272331 -0.34516162 0 16 0
2.1170487 0.44577137 -0.3040427 0 17 0
2.145993 0.45186594 -0.256309 0 18 0
2.186197 0.46033141 -0.20853499 0 19 0
2.230309 0.46961972 -0.15933861 0 20 0
2.2922676 0.4826659 -0.10905578 0 21 0
2.3353231 0.49173179 -0.055487931 0 22 0
2.3862679 0.50245887 6.961792e-05 0 23 0
2.4622543 0.51845878 0.058647599 0 24 0
2.5236125 0.53137851 0.12020969 0 25 0
2.5783195 0.54289776 0.1843525 0 26 0
2.6433079 0.55658185 0.25229305 0 27 0
2.6952159 0.56751174 0.32206544 0 28 0
2.7753897 0.58439332 0.39875633 0 29 0
2.8406119 0.59812671 0.47726586 0 30 0
2.9234838 0.61557645 0.56289208 0 31 0
1.0979334 0.24764535 -0.63255125 0 1 0
1.1374158 0.25655082 -0.62004298 0 2 0
1.2148644 0.27401984 -0.62552804 0 3 0
1.2888211 0.29070118 -0.62553763 0 4 0
1.3680036 0.30856127 -0.62444115 0 5 0
1.4569106 0.32861477 -0.62379038 0 6 0
1.5538725 0.35048509 -0.62217486 0 7 0
1.614539 0.36416879 -0.60245895 0 8 0
1.6758761 0.37800372 -0.58043545 0 9 0
1.7352068 0.39138615 -0.5552091 0 10 0
1.7966212 0.40523851 -0.52814788 0 11 0
1.8518437 0.41769427 -0.49687251 0 12 0
1.8898706 0.42627147 -0.4591783 0 13 0
1.9465756 0.43906161 -0.42416278 0 14 0
2.0089979 0.4531413 -0.38790286 0 15 0
2.0426331 0.46072793 -0.34414327 0 16 0
2.0781863 0.46874714 -0.29939431 0 17 0
2.1183889 0.47781506 -0.25380293 0 18 0
2.1475906 0.48440173 -0.20549276 0 19 0
2.2041183 0.49715188 -0.1579597 0 20 0
2.2364974 0.50445515 -0.10673507 0 21 0
2.2826068 0.51485538 -0.054404899 0 22 0
2.3656101 0.53357726 6.9230962e-05 0 23 0
2.4291785 0.54791552 0.05804063 0 24 0
2.4644651 0.55587465 0.11775921 0 25 0
2.5353034 0.57185262 0.18184343 0 26 0
2.598304 0.58606279 0.24877279 0 27 0
2.6670985 0.60157979 0.31970173 0 28 0
2.7326388 0.61636281 0.39384127 0 29 0
2.8102596 0.6338706 0.47364208 0 30 0
2.8896918 0.65178704 0.55812484 0 31 0
1.0679885 0.25700745 -0.61735529 0 1 0
1.1440256 0.27530548 -0.62573028 0 2 0
1.2135493 0.29203609 -0.62693888 0 3 0
1.2759637 0.30705592 -0.62136674 0 4 0
1.3605487 0.327411 -0.62311363 0 5 0
1.4684725 0.35338244 -0.63084179 0 6 0
1.5484794 0.37263581 -0.62208742 0 7 0
1.5869856 0.38190219 -0.59415638 0 8 0
1.6575048 0.39887238 -0.57599097 0 9 0
1.7049847 0.4102982 -0.54736203 0 10 0
1.7666649 0.42514133 -0.52107722 0 11 0
1.8123128 0.43612632 -0.48789084 0 12 0
1.8680834 0.44954729 -0.45540142 0 13 0
1.916532 0.46120629 -0.41901174 0 14 0
1.9775639 0.47589338 -0.38310948 0 15 0
1.9987788 0.48099867 -0.33788002 0 16 0
2.0569351 0.49499378 -0.29732302 0 17 0
2.0997121 0.50528795 -0.25240594 0 18 0
2.1212134 0.51046211 -0.20364711 0 19 0
2.1614363 0.5201416 -0.15541849 0 20 0
2.2223537 0.53480113 -0.10641449 0 21 0
2.2706609 0.54642606 -0.054301027 0 22 0
2.3089259 0.55563438 6.7797868e-05 0 23 0
2.3808863 0.57295144 0.057076879 0 24 0
2.4433117 0.58797389 0.11713858 0 25 0
2.4966309 0.60080492 0.17966805 0 26 0
2.56513 0.61728901 0.24641728 0 27 0
2.6280832 0.63243842 0.31607774 0 28 0
2.6880348 0.64686555 0.38870731 0 29 0
2.76529 0.66545677 0.46762034 0 30 0
2.8333561 0.68183661 0.54907268 0 31 0
1.0815028 0.27669272 -0.62739229 0 1 0
1.1401228 0.29169014 -0.62581515 0 2 0
1.2098949 0.30954069 -0.62727565 0 3 0
1.271629 0.32533482 -0.62145984 0 4 0
1.3575178 0.34730867 -0.62393832 0 5 0
1.4637007 0.37447461 -0.63102984 0 6 0
1.5295949 0.39133304 -0.61668783 0 7 0
1.5808463 0.40444526 -0.5939644 0 8 0
1.6458136 0.42106655 -0.57396382 0 9 0
1.692778 0.43308195 -0.54537743 0 10 0
1.7510858 0.44799948 -0.51832038 0 11 0
1.7848943 0.45664909 -0.48221976 0 12 0
1.8520454 0.47382909 -0.45309862 0 13 0
1.8981205 0.48561701 -0.41646343 0 14 0
1.9291062 0.4935444 -0.37505201 0 15 0
1.9929868 0.5098877 -0.33809999 0 16 0
2.0088937 0.51395732 -0.29141229 0 17 0
2.0594249 0.52688527 -0.24844413 0 18 0
2.1032867 0.53810692 -0.20264474 0 19 0
2.1408858 0.54772633 -0.15448871 0 20 0
2.1858943 0.55924129 -0.10504121 0 21 0
2.2202713 0.56803638 -0.05328498 0 22 0
2.2920725 0.58640605 6.754254e-05 0 23 0
2.3344285 0.59724247 0.056162331 0 24 0
2.4144995 0.61772788 0.11616924 0 25 0
2.4659021 0.63087875 0.17808828 0 26 0
2.535311 0.6486364 0.24441957 0 27 0
2.5871737 0.66190505 0.31226507 0 28 0
2.6689909 0.68283725 0.38732713 0 29 0
2.7162035 0.69491613 0.46095443 0 30 0
2.7968416 0.71554673 0.54392564 0 31 0
1.0839159 0.29390097 -0.63116795 0 1 0
1.1374109 0.30840597 -0.62668538 0 2 0
1.1874243 0.32196698 -0.61795163 0 3 0
1.2736111 0.34533629 -0.62478024 0 4 0
1.3618029 0.36924928 -0.62827271 0 5 0
1.452824 0.39392939 -0.62870717 0 6 0
1.5306644 0.41503564 -0.61945069 0 7 0
1.5735348 0.42665985 -0.59345108 0 8 0
1.6179783 0.43871054 -0.56638837 0 9 0
1.6852752 0.45695794 -0.54501164 0 10 0
1.731434 0.46947378 -0.51443982 0 11 0
1.7918279 0.48584941 -0.48592198 0 12 0
1.8251817 0.49489322 -0.44821358 0 13 0
1.8653045 0.50577241 -0.41080964 0 14 0
1.9073514 0.51717329 -0.37222356 0 15 0
1.9653605 0.5329023 -0.33467305 0 16 0
2.002847 0.54306668 -0.29163286 0 17 0
2.0244844 0.54893363 -0.24515176 0 18 0
2.058428 0.55813736 -0.19907208 0 19 0
2.1164331 0.57386529 -0.15330121 0 20 0
2.1569695 0.58485663 -0.10404288 0 21 0
2.2224774 0.60261893 -0.053539451 0 22 0
2.2572331 0.61204278 6.6767214e-05 0 23 0
2.3141997 0.62748915 0.055886019 0 24 0
2.3830488 0.64615738 0.11508925 0 25 0
2.429132 0.65865272 0.17609556 0 26 0
2.4993196 0.67768389 0.24186015 0 27 0
2.5612135 0.69446629 0.31029972 0 28 0
2.6039925 0.70606571 0.37932226 0 29 0
2.6867814 0.72851372 0.45768407 0 30 0
2.7719753 0.7516138 0.54112649 0 31 0
1.0672998 0.30585936 -0.62397766 0 1 0
1.1337676 0.32490721 -0.62717611 0 2 0
1.1975765 0.34319311 -0.6257273 0 3 0
1.2640857 0.36225286 -0.62258726 0 4 0
1.3590989 0.3894811 -0.62953269 0 5 0
1.4316927 0.41028452 -0.62204027 0 6 0
1.5310732 0.4387643 -0.62209392 0 7 0
1.5773201 0.4520174 -0.59725755 0 8 0
1.6070912 0.460549 -0.56482697 0 9 0
1.6541221 0.4740268 -0.53707606 0 10 0
1.7044483 0.48844892 -0.50844711 0 11 0
1.7404822 0.49877527 -0.47388521 0 12 0
1.804405 0.51709384 -0.44488341 0 13 0
1.8516202 0.53062439 -0.4094266 0 14 0
1.8850001 0.54019022 -0.36933273 0 15 0
1.9330742 0.55396694 -0.33049154 0 16 0
1.9724869 0.56526154 -0.28836074 0 17 0
2.0010991 0.573461 -0.24328898 0 18 0
2.0571101 0.58951229 -0.1997402 0 19 0
2.0787516 0.59571415 -0.15117392 0 20 0
2.1274216 0.60966164 -0.10302798 0 21 0
2.1734779 0.62286013 -0.052568436 0 22 0
2.2420318 0.64250582 6.6582776e-05 0 23 0
2.2811725 0.65372252 0.055308737 0 24 0
2.3431494 0.67148346 0.11361485 0 25 0
2.400871 0.68802488 0.17474285 0 26 0
2.4621346 0.70558137 0.23921455 0 27 0
2.5207407 0.72237635 0.30661759 0 28 0
2.5940721 0.74339116 0.3793883 0 29 0
2.654654 0.76075226 0.45401967 0 30 0
2.7230849 0.78036273 0.53370821 0 31 0
1.0599215 0.32022959 -0.62228 0 1 0
1.1346426 0.34280479 -0.63030994 0 2 0
1.1947985 0.36097938 -0.62691122 0 3 0
1.2558935 0.37943777 -0.62116373 0 4 0
1.3380942 0.40427274 -0.62241983 0 5 0
1.4313627 0.43245158 -0.62452233 0 6 0
1.5152478 0.45779541 -0.61826295 0 7 0
1.5673492 0.47353658 -0.5959875 0 8 0
1.5973215 0.48259202 -0.56376338 0 9 0
1.6374377 0.49471211 -0.53390324 0 10 0
1.6932194 0.51156521 -0.50722975 0 11 0
1.7360343 0.52450067 -0.47466958 0 12 0
1.7858963 0.53956532 -0.44217888 0 13 0
1.8228648 0.5507344 -0.40476987 0 14 0
1.8556409 0.56063694 -0.3651152 0 15 0
1.9228785 0.58095115 -0.33013624 0 16 0
1.9377711 0.58545059 -0.2844815 0 17 0
1.9797381 0.59812993 -0.24170808 0 18 0
2.0079093 0.60664111 -0.19578597 0 19 0
2.0652497 0.62396514 -0.15082607 0 20 0
2.1018882 0.63503456 -0.10222116 0 21 0
2.1428847 0.6474207 -0.052047301 0 22 0
2.1953421 0.6632694 6.5471431e-05 0 23 0
2.2614295 0.68323618 0.055061527 0 24 0
2.3232799 0.70192271 0.11312699 0 25 0
2.3639023 0.71419585 0.17277849 0 26 0
2.4109321 0.7284047 0.23522872 0 27 0
2.4803653 0.74938226 0.30298007 0 28 0
2.5579824 0.77283239 0.37568948 0 29 0
2.6277986 0.79392564 0.45132393 0 30 0
2.6864839 0.811656 0.52875745 0 31 0
1.0518335 0.33428699 -0.62027723 0 1 0
1.1192237 0.35570452 -0.62450886 0 2 0
1.188821 0.37782347 -0.62654823 0 3 0
1.2599065 0.40041542 -0.62591916 0 4 0
1.3288169 0.42231607 -0.62085265 0 5 0
1.4176905 0.45056131 -0.62130708 0 6 0
1.4980114 0.47608837 -0.61394763 0 7 0
1.5485758 0.49215844 -0.59146696 0 8 0
1.5850363 0.50374609 -0.56191462 0 9 0
1.6260226 0.51677209 -0.53253847 0 10 0
1.673884 0.53198308 -0.503667 0 11 0
1.7180489 0.54601932 -0.47184059 0 12 0
1.7652061 0.56100649 -0.43899927 0 13 0
1.812152 0.57592654 -0.40418017 0 14 0
1.8330055 0.5825541 -0.36226505 0 15 0
1.8729814 0.59525895 -0.32299924 0 16 0
1.9299632 0.61336857 -0.28459498 0 17 0
1.9521501 0.62041986 -0.23939952 0 18 0
1.9807591 0.62951219 -0.19399735 0 19 0
2.0204718 0.64213341 -0.14821197 0 20 0
2.0507114 0.65174401 -0.1001757 0 21 0
2.1241951 0.67509806 -0.051822744 0 22 0
2.1657715 0.68831164 6.4876724e-05 0 23 0
2.2405148 0.71206611 0.054794837 0 24 0
2.2920434 0.72844261 0.1121022 0 25 0
2.3390188 0.74337202 0.17171985 0 26 0
2.3815224 0.75688028 0.2333924 0 27 0
2.4503775 0.77876329 0.30064783 0 28 0
2.5274842 0.80326885 0.37286064 0 29 0
2.5855801 0.82173252 0.44604734 0 30 0
2.662899 0.84630555 0.52644575 0 31 0
1.067432 0.35614318 -0.6324172 0 1 0
1.117354 0.37279937 -0.62637883 0 2 0
1.1817259 0.39427671 -0.62571907 0 3 0
1.2632266 0.421469 -0.63050103 0 4 0
1.3312016 0.44414851 -0.6248731 0 5 0
1.4286464 0.47666049 -0.62903422 0 6 0
1.4853932 0.49559373 -0.61162078 0 7 0
1.5203562 0.50725895 -0.5834021 0 8 0
1.5763267 0.52593327 -0.5614382 0 9 0
1.6084995 0.53666753 -0.52926105 0 10 0
1.6466213 0.54938668 -0.49777889 0 11 0
1.6888371 0.56347173 -0.46598518 0 12 0
1.7476882 0.58310711 -0.43667361 0 13 0
1.7839395 0.59520221 -0.39974689 0 14 0
1.8147763 0.60549068 -0.36033821 0 15 0
1.8625352 0.62142521 -0.32269862 0 16 0
1.9007522 0.63417614 -0.2815972 0 17 0
1.9348255 0.64554453 -0.23838367 0 18 0
1.9759312 0.6592592 -0.19442879 0 19 0
2.0058084 0.66922754 -0.14782386 0 20 0
2.0387483 0.6802178 -0.10005667 0 21 0
2.0989113 0.70029092 -0.051445186 0 22 0
2.137414 0.71313709 6.432645e-05 0 23 0
2.2022874 0.73478174 0.054111604 0 24 0
2.2474384 0.74984622 0.11043423 0 25 0
2.3012168 0.76778907 0.16973403 0 26 0
2.3634579 0.7885555 0.23270436 0 27 0
2.4009564 0.80106664 0.29596063 0 28 0
2.4842279 0.82884979 0.36819184 0 29 0
2.5477307 0.85003716 0.44157153 0 30 0
2.6167836 0.87307626 0.51974618 0 31 0
1.0456004 0.36557114 -0.62251902 0 1 0
1.0981256 0.38393539 -0.61861688 0 2 0
1.1803672 0.41268942 -0.62806314 0 3 0
1.2449675 0.43527547 -0.62443328 0 4 0
1.3293157 0.46476594 -0.62704629 0 5 0
1.4173167 0.49553356 -0.6271044 0 6 0
1.4601674 0.51051539 -0.60418081 0 7 0
1.5156963 0.52992982 -0.58446473 0 8 0
1.5537987 0.54325145 -0.55612701 0 9 0
1.5940924 0.55733925 -0.52709144 0 10 0
1.6278884 0.56915534 -0.49452797 0 11 0
1.6685426 0.58336914 -0.46264207 0 12 0
1.7119086 0.59853113 -0.42983031 0 13 0
1.7615633 0.61589181 -0.39666757 0 14 0
1.8004053 0.62947202 -0.35923693 0 15 0
1.8363742 0.64204776 -0.31972551 0 16 0
1.8674824 0.65292412 -0.27802435 0 17 0
1.919053 0.67095459 -0.23759927 0 18 0
1.9475158 0.680906 -0.19257203 0 19 0
1.9860475 0.69437778 -0.14708494 0 20 0
2.0290556 0.7094146 -0.10006908 0 21 0
2.062187 0.72099823 -0.050792798 0 22 0
2.1201191 0.7412529 6.4118685e-05 0 23 0
2.1613896 0.75568223 0.053367019 0 24 0
2.2079041 0.77194506 0.10902337 0 25 0
2.2755592 0.79559916 0.16866423 0 26 0
2.330889 0.81494397 0.23062252 0 27 0
2.3821859 0.83287883 0.29508615 0 28 0
2.4382491 0.85248005 0.36314848 0 29 0
2.5164578 0.87982398 0.43828911 0 30 0
2.5865011 0.90431315 0.51624954 0 31 0
1.0309587 0.3770957 -0.61695212 0 1 0
1.0867218 0.39749226 -0.61533475 0 2 0
1.1735181 0.4292399 -0.62762356 0 3 0
1.2405319 0.45375171 -0.62540197 0 4 0
1.3245864 0.48449647 -0.62802231 0 5 0
1.392099 0.50919068 -0.61910802 0 6 0
1.4390243 0.52635461 -0.59848839 0 7 0
1.5001024 0.54869527 -0.58142048 0 8 0
1.5287805 0.55918491 -0.54998094 0 9 0
1.5777378 0.57709211 -0.52436131 0 10 0
1.6061236 0.58747482 -0.49042034 0 11 0
1.6496553 0.60339755 -0.45975277 0 12 0
1.7097365 0.62537354 -0.43148825 0 13 0
1.7380344 0.63572413 -0.39337805 0 14 0
1.7734867 0.64869159 -0.35568205 0 15 0
1.8042834 0.65995616 -0.3157506 0 16 0
1.8384589 0.67245656 -0.27510819 0 17 0
1.8810623 0.68803972 -0.23409095 0 18 0
1.9140606 0.70010954 -0.19023535 0 19 0
1.962442 0.7178061 -0.14608267 0 20 0
1.9940796 0.72937822 -0.098848872 0 21 0
2.0369339 0.74505311 -0.050428301 0 22 0
2.0873353 0.76348865 6.3451218e-05 0 23 0
2.1398175 0.7826851 0.053105552 0 24 0
2.1946044 0.8027246 0.10892284 0 25 0
2.2491739 0.82268459 0.16756418 0 26 0
2.2985873 0.84075862 0.22859378 0 27 0
2.3580739 0.86251718 0.29359853 0 28 0
2.4120204 0.8822493 0.36108586 0 29 0
2.4873402 0.9097991 0.4354412 0 30 0
2.5678768 0.93925714 0.51516283 0 31 0
1.094486 0.41818747 -0.62305653 0 2 0
1.1701227 0.44708723 -0.62916577 0 3 0
1.2339636 0.47147989 -0.62542874 0 4 0
1.3061345 0.49905539 -0.6225968 0 5 0
1.3677176 0.52258545 -0.61152881 0 6 0
1.4242611 0.54418987 -0.59552693 0 7 0
1.4646876 0.55963624 -0.5707404 0 8 0
1.5227058 0.58180422 -0.55073506 0 9 0
1.5570441 0.59492439 -0.52026057 0 10 0
1.5977823 0.61048985 -0.4904913 0 11 0
1.6357636 0.62500197 -0.45832744 0 12 0
1.6759801 0.6403681 -0.42523876 0 13 0
1.7093281 0.65310991 -0.38895682 0 14 0
1.7425377 0.66579884 -0.35135037 0 15 0
1.7818663 0.68082571 -0.31350085 0 16 0
1.8305535 0.69942838 -0.2753951 0 17 0
1.8602985 0.71079355 -0.23274925 0 18 0
1.9170867 0.73249149 -0.19155852 0 19 0
1.9279053 0.73662513 -0.14428188 0 20 0
1.9634799 0.75021768 -0.097854294 0 21 0
2.0311153 0.77606022 -0.050554078 0 22 0
2.0477774 0.7824266 6.2582752e-05 0 23 0
2.1055024 0.8044824 0.052534319 0 24 0
2.1630549 0.82647246 0.10793305 0 25 0
2.2063746 0.84302437 0.16525768 0 26 0
2.2681479 0.86662704 0.22677699 0 27 0
2.3323183 0.89114553 0.29194999 0 28 0
2.3902607 0.91328454 0.35974845 0 29 0
2.4563739 0.93854547 0.43232766 0 30 0
2.5289044 0.96625835 0.51006663 0 31 0
1.0974486 0.43741998 -0.62824291 0 2 0
1.1574163 0.46132186 -0.62581992 0 3 0
1.2405586 0.49446064 -0.63229388 0 4 0
1.3058466 0.52048302 -0.62594658 0 5 0
1.3571676 0.54093856 -0.61021113 0 6 0
1.3891922 0.55370289 -0.58411759 0 7 0
1.4436893 0.57542431 -0.56570959 0 8 0
1.4807221 0.59018475 -0.5385505 0 9 0
1.5362448 0.61231494 -0.51618642 0 10 0
1.5651259 0.62382638 -0.48315799 0 11 0
1.6151857 0.64377916 -0.45509696 0 12 0
1.6521573 0.65851521 -0.42154264 0 13 0
1.6868927 0.67236006 -0.386002 0 14 0
1.7258554 0.68788975 -0.3499361 0 15 0
1.7638927 0.70305061 -0.31207711 0 16 0
1.8000515 0.71746278 -0.27232334 0 17 0
1.8404667 0.73357141 -0.23155798 0 18 0
1.8712375 0.74583602 -0.18802464 0 19 0
1.8999627 0.75728524 -0.14298724 0 20 0
1.9424788 0.77423131 -0.097349979 0 21 0
1.9870727 0.79200548 -0.049734931 0 22 0
2.0329781 0.81030244 6.2478524e-05 0 23 0
2.0685256 0.82447094 0.051900849 0 24 0
2.1438003 0.85447389 0.10757154 0 25 0
2.1800299 0.86891419 0.16419917 0 26 0
2.2395868 0.89265233 0.22517577 0 27 0
2.2917728 0.91345257 0.28848177 0 28 0
2.3646834 0.94251323 0.35789269 0 29 0
2.4103332 0.96070826 0.4266009 0 30 0
2.495769 0.99476117 0.50620341 0 31 0
1.0834289 0.44990635 -0.6238398 0 2 0
1.1625463 0.48276079 -0.63226521 0 3 0
1.224759 0.50859535 -0.62788707 0 4 0
1.2874277 0.53461921 -0.62072212 0 5 0
1.3246312 0.55006844 -0.59906071 0 6 0
1.3688011 0.56841052 -0.57890534 0 7 0
1.4376085 0.59698355 -0.56661701 0 8 0
1.4866831 0.61736232 -0.54387677 0 9 0
1.509426 0.62680662 -0.5101375 0 10 0
1.5712628 0.65248507 -0.48788553 0 11 0
1.5814382 0.65671051 -0.44819081 0 12 0
1.636502 0.6795764 -0.41998705 0 13 0
1.6740345 0.69516218 -0.38529709 0 14 0
1.7001178 0.70599359 -0.34673098 0 15 0
1.7341034 0.72010654 -0.30859864 0 16 0
1.7765594 0.73773682 -0.27033913 0 17 0
1.8028735 0.74866408 -0.22815305 0 18 0
1.849864 0.76817745 -0.18696268 0 19 0
1.8784014 0.78002793 -0.14219026 0 20 0
1.919083 0.79692143 -0.096739225 0 21 0
1.9377122 0.8046574 -0.048782751 0 22 0
2.0099874 0.83467048 6.2132756e-05 0 23 0
2.0620089 0.85627306 0.052039523 0 24 0
2.1007223 0.87234926 0.10602565 0 25 0
2.1486621 0.89225674 0.1627818 0 26 0
2.2031336 0.9148767 0.22280443 0 27 0
2.2460818 0.93271148 0.28438169 0 28 0
2.3286569 0.96700168 0.35449862 0 29 0
2.3863399 0.99095523 0.42482126 0 30 0
2.4664013 1.0242018 0.50316876 0 31 0
1.0233052 0.44221482 -0.6265108 0 1 0
1.0788934 0.46623689 -0.62500685 0 2 0
1.1399976 0.4926427 -0.62377298 0 3 0
1.2171953 0.52600318 -0.62780493 0 4 0
1.2719496 0.54966491 -0.61698961 0 5 0
1.3140414 0.56785464 -0.59788615 0 6 0
1.353132 0.58474737 -0.57575923 0 7 0
1.3952626 0.60295385 -0.55327177 0 8 0
1.4483551 0.62589741 -0.53307796 0 9 0
1.51446 0.65446419 -0.514952 0 10 0
1.5527923 0.67102927 -0.48508298 0 11 0
1.5830978 0.6841256 -0.45139012 0 12 0
1.6213158 0.70064127 -0.41862056 0 13 0
1.6503778 0.71320021 -0.38216266 0 14 0
1.6732982 0.72310519 -0.34333694 0 15 0
1.717973 0.74241108 -0.30758765 0 16 0
1.7630024 0.76187021 -0.26990792 0 17 0
1.7849646 0.77136105 -0.22726063 0 18 0
1.8268889 0.78947842 -0.18576369 0 19 0
1.861021 0.80422837 -0.14173147 0 20 0
1.8834194 0.81390768 -0.095518924 0 21 0
1.9418058 0.83913898 -0.049183153 0 22 0
1.9769704 0.85433513 6.1483843e-05 0 23 0
2.0206733 0.8732211 0.051306508 0 24 0
2.0683832 0.89383864 0.10502843 0 25 0
2.1209998 0.9165765 0.16166349 0 26 0
2.1722932 0.93874258 0.22102174 0 27 0
2.2406192 0.96826929 0.28541559 0 28 0
2.2802038 0.98537558 0.34923384 0 29 0
2.3516407 1.0162464 0.42119038 0 30 0
2.4271972 1.0488977 0.49818256 0 31 0
0.96399504 0.43306109 -0.62673366 0 0 0
1.0040026 0.45103395 -0.61858207 0 1 0
1.075609 0.48320207 -0.62704653 0 2 0
1.1336877 0.50929314 -0.62424517 0 3 0
1.2027291 0.54030901 -0.62426853 0 4 0
1.2760022 0.57322592 -0.62287158 0 5 0
1.311566 0.5892024 -0.60053551 0 6 0
1.3477 0.60543507 -0.57707614 0 7 0
1.3912784 0.6250121 -0.55518246 0 8 0
1.412946 0.63474596 -0.5233357 0 9 0
1.4735314 0.66196305 -0.50420541 0 10 0
1.5246563 0.68493026 -0.479307 0 11 0
1.5513921 0.6969409 -0.44514859 0 12 0
1.5846215 0.71186876 -0.41173485 0 13 0
1.6119307 0.72413701 -0.37562147 0 14 0
1.6669345 0.74884665 -0.34419522 0 15 0
1.6984415 0.76300073 -0.30601469 0 16 0
1.7201521 0.77275395 -0.26501396 0 17 0
1.7658231 0.79327095 -0.226246 0 18 0
1.7834715 0.80119926 -0.18249626 0 19 0
1.8289226 0.82161754 -0.14016819 0 20 0
1.8697971 0.83997983 -0.095428042 0 21 0
1.9050671 0.85582435 -0.048557907 0 22 0
1.9511284 0.87651676 6.1064085e-05 0 23 0
1.9979606 0.89755547 0.051050782 0 24 0
2.0445216 0.91847235 0.10447363 0 25 0
2.105783 0.94599313 0.16151917 0 26 0
2.1449978 0.96360987 0.2196254 0 27 0
2.2051365 0.99062628 0.28267294 0 28 0
2.2571814 1.0140067 0.34789506 0 29 0
2.3273432 1.0455259 0.41947591 0 30 0
2.3924971 1.0747954 0.4941673 0 31 0
0.95613223 0.44608277 -0.62570876 0 0 0
1.0037124 0.46828127 -0.62246919 0 1 0
1.0671192 0.49786365 -0.62618744 0 2 0
1.1292884 0.52686864 -0.62591112 0 3 0
1.1948785 0.55746961 -0.62427133 0 4 0
1.2527277 0.58445919 -0.61553085 0 5 0
1.3145114 0.61328429 -0.60584146 0 6 0
1.3446323 0.62733716 -0.57954812 0 7 0
1.3904097 0.64869457 -0.55848378 0 8 0
1.4282576 0.66635245 -0.53248501 0 9 0
1.4709072 0.68625063 -0.50661659 0 10 0
1.5129038 0.7058441 -0.47873941 0 11 0
1.5289937 0.71335083 -0.44160622 0 12 0
1.5729738 0.73386973 -0.41139558 0 13 0
1.5967858 0.7449792 -0.37453875 0 14 0
1.6470969 0.76845181 -0.34233516 0 15 0
1.6775891 0.78267795 -0.30424494 0 16 0
1.7107652 0.79815626 -0.26530069 0 17 0
1.7366663 0.81024033 -0.22397326 0 18 0
1.7764159 0.82878548 -0.18296942 0 19 0
1.8109686 0.84490603 -0.13970475 0 20 0
1.8400486 0.85847324 -0.094527215 0 21 0
1.8772581 0.87583333 -0.04816369 0 22 0
1.9312592 0.90102744 6.0839637e-05 0 23 0
1.968325 0.91832054 0.050624222 0 24 0
2.0186937 0.94182003 0.10383207 0 25 0
2.075269 0.96821523 0.16022524 0 26 0
2.1250293 0.99143082 0.21901138 0 27 0
2.1671863 1.0110991 0.27963468 0 28 0
2.2379756 1.0441258 0.34720278 0 29 0
2.3088477 1.0771911 0.41887841 0 30 0
2.3610778 1.101559 0.49088413 0 31 0
0.93594909 0.4530887 -0.61668146 0 0 0
1.0128928 0.49033684 -0.6324504 0 1 0
1.0602098 0.51324272 -0.62637961 0 2 0
1.1285187 0.54631078 -0.62975401 0 3 0
1.1857222 0.57400274 -0.62371624 0 4 0
1.2450563 0.6027261 -0.61593735 0 5 0
1.2896776 0.62432706 -0.59845316 0 6 0
1.344089 0.65066743 -0.58326834 0 7 0
1.382036 0.66903734 -0.55890954 0 8 0
1.4079129 0.68156421 -0.52848303 0 9 0
1.4525552 0.70317537 -0.50371075 0 10 0
1.4827291 0.71778238 -0.47239369 0 11 0
1.5193021 0.73548728 -0.44180235 0 12 0
1.5613554 0.75584507 -0.41114432 0 13 0
1.5940039 0.77165002 -0.37643835 0 14 0
1.6279993 0.78810704 -0.34067556 0 15 0
1.6433872 0.79555631 -0.30007657 0 16 0
1.6697781 0.80833203 -0.26071206 0 17 0
1.7202277 0.83275443 -0.22336759 0 18 0
1.755602 0.84987897 -0.18205991 0 19 0
1.7816569 0.86249202 -0.13838172 0 20 0
1.8269417 0.8844142 -0.094494537 0 21 0
1.8622979 0.90152997 -0.048106011 0 22 0
1.8991809 0.9193849 6.0237482e-05 0 23 0
1.9512084 0.94457108 0.050526544 0 24 0
1.9815331 0.95925117 0.1026164 0 25 0
2.0472941 0.99108583 0.15914434 0 26 0
2.0903802 1.0119436 0.21691093 0 27 0
2.148149 1.0399092 0.27907032 0 28 0
2.2126551 1.0711362 0.34561768 0 29 0
2.2557278 1.0919876 0.41203469 0 30 0
2.3431854 1.1343254 0.49048951 0 31 0
0.94451338 0.47403854 -0.62673074 0 0 0
0.99398834 0.49886936 -0.62504095 0 1 0
1.0506268 0.52729541 -0.62511295 0 2 0
1.1141369 0.55917031 -0.6261307 0 3 0
1.1828688 0.59366596 -0.62662089 0 4 0
1.2351278 0.61989403 -0.61535203 0 5 0
1.2741503 0.63947886 -0.59543437 0 6 0
1.3299718 0.66749495 -0.58122867 0 7 0
1.3656304 0.68539149 -0.55618536 0 8 0
1.416485 0.71091473 -0.53546548 0 9 0
1.4420798 0.72376043 -0.50361896 0 10 0
1.4619421 0.73372906 -0.46906894 0 11 0
1.5086831 0.75718772 -0.44182077 0 12 0
1.5224069 0.76407552 -0.40372673 0 13 0
1.5573801 0.78162813 -0.37039348 0 14 0
1.5969658 0.80149561 -0.33654767 0 15 0
1.6337024 0.81993324 -0.30042034 0 16 0
1.6650035 0.83564281 -0.26180729 0 17 0
1.7000282 0.8532213 -0.22230773 0 18 0
1.7369145 0.87173402 -0.18139735 0 19 0
1.7645614 0.88560963 -0.13802433 0 20 0
1.7953079 0.90104085 -0.093515836 0 21 0
1.8492804 0.9281289 -0.048107982 0 22 0
1.8785926 0.94284034 6.0006361e-05 0 23 0
1.9171548 0.96219414 0.049996242 0 24 0
1.9705509 0.98899293 0.10277023 0 25 0
2.0072114 1.0073924 0.15713331 0 26 0
2.0704992 1.0391556 0.2163692 0 27 0
2.126967 1.0674961 0.27827498 0 28 0
2.1834819 1.0958601 0.34347573 0 29 0
2.2404656 1.1244595 0.41214457 0 30 0
2.2968433 1.1527547 0.48419318 0 31 0
0.93619502 0.48676062 -0.62577009 0 0 0
0.98842299 0.51391578 -0.62610275 0 1 0
1.0474623 0.54461241 -0.62780404 0 2 0
1.1025956 0.57327813 -0.62419212 0 3 0
1.1780865 0.6125285 -0.62866759 0 4 0
1.2334394 0.64130843 -0.6190207 0 5 0
1.2818878 0.66649842 -0.6034466 0 6 0
1.3179661 0.68525678 -0.5802089 0 7 0
1.3573029 0.7057094 -0.55685073 0 8 0
1.3995284 0.72766387 -0.53293812 0 9 0
1.4243574 0.74057335 -0.50108033 0 10 0
1.4491146 0.75344551 -0.46836543 0 11 0
1.4800078 0.76950794 -0.43660399 0 12 0
1.5014025 0.78063184 -0.40107858 0 13 0
1.5512342 0.80654109 -0.37163937 0 14 0
1.5802567 0.8216309 -0.33547044 0 15 0
1.6145308 0.83945113 -0.29907376 0 16 0
1.6380363 0.85167247 -0.25945717 0 17 0
1.6691349 0.86784172 -0.21986973 0 18 0
1.6939403 0.88073897 -0.17820759 0 19 0
1.7324268 0.90074944 -0.13650525 0 20 0
1.7652948 0.91783869 -0.092627309 0 21 0
1.8167379 0.94458568 -0.047608253 0 22 0
1.8638874 0.96910042 5.9973579e-05 0 23 0
1.8902236 0.98279357 0.049655683 0 24 0
1.9456836 1.0116291 0.10221802 0 25 0
1.9945022 1.0370116 0.15728426 0 26 0
2.0360773 1.058628 0.21433359 0 27 0
2.099731 1.0917238 0.27672774 0 28 0
2.1314545 1.1082178 0.33775213 0 29 0
2.21328 1.1507618 0.41013163 0 30 0
2.2601149 1.175113 0.47994712 0 31 0
0.93026483 0.50071901 -0.62653267 0 0 0
0.99154383 0.53370267 -0.63285369 0 1 0
1.0311426 0.55501693 -0.6227203 0 2 0
1.093953 0.58882487 -0.62400681 0 3 0
1.1676316 0.62848264 -0.6278246 0 4 0
1.2193025 0.65629476 -0.61657715 0 5 0
1.2755679 0.68657982 -0.60503578 0 6 0
1.3223664 0.71176928 -0.58657098 0 7 0
1.3546028 0.72912073 -0.55996722 0 8 0
1.3688217 0.73677415 -0.5252071 0 9 0
1.403047 0.75519598 -0.4973352 0 10 0
1.4384444 0.77424878 -0.46845061 0 11 0
1.4661018 0.78913552 -0.43578917 0 12 0
1.4866896 0.80021697 -0.40016699 0 13 0
1.5100414 0.81278616 -0.36452034 0 14 0
1.5586936 0.83897346 -0.33340797 0 15 0
1.5958076 0.8589502 -0.29785243 0 16 0
1.6191925 0.87153721 -0.25842187 0 17 0
1.6427964 0.88424212 -0.21804513 0 18 0
1.6738394 0.90095121 -0.17743142 0 19 0
1.711151 0.92103428 -0.13585368 0 20 0
1.7566197 0.945508 -0.092872724 0 21 0
1.7950183 0.96617621 -0.047396634 0 22 0
1.8300872 0.98505217 5.9333597e-05 0 23 0
1.8817923 1.0128827 0.049809948 0 24 0
1.9265273 1.0369614 0.10198095 0 25 0
1.9637455 1.0569943 0.1560359 0 26 0
2.0211055 1.0878687 0.21437474 0 27 0
2.0723791 1.1154668 0.275199 0 28 0
2.1118975 1.1367377 0.33719683 0 29 0
2.1639168 1.1647375 0.40403229 0 30 0
2.2291651 1.1998576 0.47697294 0 31 0
0.92086518 0.51279104 -0.6250813 0 0 0
0.97273397 0.54167461 -0.62573266 0 1 0
1.0269595 0.57187051 -0.62507331 0 2 0
1.0889339 0.60638148 -0.62603056 0 3 0
1.1547264 0.64301848 -0.62577033 0 4 0
1.2120652 0.6749481 -0.61773944 0 5 0
1.2531114 0.69780493 -0.59906024 0 6 0
1.2994714 0.72362095 -0.5809502 0 7 0
1.3369805 0.74450815 -0.55703062 0 8 0
1.3639612 0.75953257 -0.5274595 0 9 0
1.3913993 0.77481169 -0.4970867 0 10 0
1.4143431 0.78758818 -0.46422538 0 11 0
1.4411448 0.80251288 -0.43174103 0 12 0
1.4779828 0.82302636 -0.4009532 0 13 0
1.5066987 0.83901709 -0.36657488 0 14 0
1.5393033 0.8571732 -0.33185074 0 15 0
1.5578882 0.8675223 -0.29306248 0 16 0
1.6054832 0.89402598 -0.25824976 0 17 0
1.6294738 0.90738535 -0.21797836 0 18 0
1.6537364 0.92089617 -0.17667958 0 19 0
1.6783545 0.934605 -0.13429819 0 20 0
1.7195913 0.95756793 -0.09163028 0 21 0
1.7657959 0.98329741 -0.046991844 0 22 0
1.8075364 1.0065409 5.9063517e-05 0 23 0
1.8420604 1.0257659 0.049141865 0 24 0
1.8786604 1.0461469 0.10022949 0 25 0
1.9433037 1.082144 0.15562645 0 26 0
1.988529 1.1073281 0.21257877 0 27 0
2.0425 1.1373823 0.27336511 0 28 0
2.097348 1.1679248 0.33750835 0 29 0
2.1540504 1.1995 0.40535426 0 30 0
2.1973581 1.2236162 0.47386616 0 31 0
0.91982871 0.52960104 -0.6294589 0 0 0
0.96442008 0.55527496 -0.62543321 0 1 0
1.0180154 0.586133 -0.62467176 0 2 0
1.0824707 0.62324381 -0.62737912 0 3 0
1.1472875 0.66056287 -0.62679869 0 4 0
1.2034727 0.69291204 -0.61835164 0 5 0
1.2553329 0.72277111 -0.60500604 0 6 0
1.2921457 0.74396646 -0.58237612 0 7 0
1.31432 0.75673354 -0.55204564 0 8 0
1.3445219 0.7741226 -0.52417326 0 9 0
1.3802691 0.79470444 -0.49712324 0 10 0
1.4072294 0.8102271 -0.46564925 0 11 0
1.4249536 0.82043195 -0.4303644 0 12 0
1.4597571 0.84047043 -0.39923152 0 13 0
1.4791902 0.85165936 -0.36281085 0 14 0
1.5217988 0.87619168 -0.33074689 0 15 0
1.5374818 0.8852213 -0.2915774 0 16 0
1.5649598 0.90104204 -0.25377992 0 17 0
1.6145192 0.9295764 -0.21773545 0 18 0
1.6319628 0.93961972 -0.17577222 0 19 0
1.6609795 0.95632643 -0.13398947 0 20 0
1.7014936 0.97965276 -0.091403753 0 21 0
1.7322704 0.99737287 -0.046474807 0 22 0
1.7863369 1.0285022 5.8845813e-05 0 23 0
1.818094 1.0467867 0.048897203 0 24 0
1.8622737 1.0722235 0.10016377 0 25 0
1.9009788 1.0945085 0.15347581 0 26 0
1.9649878 1.1313623 0.21177162 0 27 0
2.0202022 1.1631526 0.2725811 0 28 0
2.0666754 1.1899101 0.3352789 0 29 0
2.1164687 1.2185791 0.40152323 0 30 0
2.1717808 1.2504256 0.47216174 0 31 0
0.91347182 0.54349494 -0.6303677 0 0 0
0.95143974 0.56608498 -0.62220627 0 1 0
1.0294137 0.61247772 -0.63698018 0 2 0
1.0679493 0.63540554 -0.62417012 0 3 0
1.1438376 0.68055731 -0.63017118 0 4 0
1.1896626 0.70782214 -0.61639833 0 5 0
1.2312615 0.73257256 -0.59839702 0 6 0
1.2668498 0.75374681 -0.57577872 0 7 0
1.3052574 0.77659845 -0.55285144 0 8 0
1.3308216 0.79180855 -0.523197 0 9 0
1.3595027 0.80887318 -0.49376324 0 10 0
1.3954561 0.83026457 -0.46563816 0 11 0
1.4056731 0.83634353 -0.42811295 0 12 0
1.4351856 0.85390276 -0.39581358 0 13 0
1.4583488 0.86768436 -0.36070821 0 14 0
1.4910603 0.88714689 -0.32679251 0 15 0
1.5235567 0.90648156 -0.29136738 0 16 0
1.5519602 0.92338103 -0.25378916 0 17 0
1.5697168 0.93394572 -0.2134743 0 18 0
1.6064852 0.95582217 -0.17448381 0 19 0
1.6348488 0.97269779 -0.13299103 0 20 0
1.6841652 1.00204 -0.091234021 0 21 0
1.7138332 1.0196918 -0.046366986 0 22 0
1.7465093 1.0391333 5.8017831e-05 0 23 0
1.7842317 1.0615772 0.048390191 0 24 0
1.8461064 1.0983913 0.10012956 0 25 0
1.8727552 1.1142467 0.15246917 0 26 0
1.9275182 1.1468295 0.20948108 0 27 0
1.9807259 1.1784868 0.26950309 0 28 0
2.0431201 1.21561 0.33424604 0 29 0
2.0894022 1.2431468 0.39972308 0 30 0
2.1447151 1.2760566 0.47020018 0 31 0
0.9041943 0.55564916 -0.62938941 0 0 0
0.945687 0.58114749 -0.62382007 0 1 0
1.0002074 0.61465156 -0.62428784 0 2 0
1.0715611 0.65850013 -0.63172513 0 3 0
1.1204053 0.68851608 -0.62262738 0 4 0
1.1684307 0.71802878 -0.61065996 0 5 0
1.2207991 0.75021046 -0.59846973 0 6 0
1.2563965 0.77208596 -0.57599151 0 7 0
1.283715 0.78887379 -0.54845345 0 8 0
1.3035436 0.80105895 -0.51692772 0 9 0
1.3421469 0.82478166 -0.49169704 0 10 0
1.3523613 0.83105862 -0.45518085 0 11 0
1.3908002 0.85468024 -0.42726529 0 12 0
1.4293783 0.87838739 -0.39763874 0 13 0
1.4443188 0.88756871 -0.36034337 0 14 0
1.4715793 0.90432096 -0.32532647 0 15 0
1.5056087 0.92523283 -0.29043788 0 16 0
1.5242102 0.93666387 -0.25141788 0 17 0
1.560903 0.95921248 -0.21412089 0 18 0
1.5940893 0.97960621 -0.17464247 0 19 0
1.6215073 0.99645531 -0.13305233 0 20 0
1.6594423 1.0197673 -0.090676159 0 21 0
1.6866809 1.0365061 -0.046029057 0 22 0
1.737013 1.0674363 5.8203954e-05 0 23 0
1.7729671 1.0895309 0.048502665 0 24 0
1.8124113 1.1137704 0.099156499 0 25 0
1.8548244 1.1398343 0.15232202 0 26 0
1.9033952 1.1696823 0.20865755 0 27 0
1.9714308 1.2114917 0.27057004 0 28 0
2.0052681 1.2322855 0.33090523 0 29 0
2.0571101 1.2641437 0.39696625 0 30 0
2.0992248 1.2900242 0.46422762 0 31 0
0.89202505 0.56591666 -0.62649286 0 0 0
0.9460634 0.60019952 -0.62967086 0 1 0
0.99319381 0.63009989 -0.62547541 0 2 0
1.0493364 0.66571778 -0.62417644 0 3 0
1.1093839 0.70381302 -0.62203717 0 4 0
1.171723 0.74336207 -0.61787826 0 5 0
1.1982664 0.76020163 -0.59269714 0 6 0
1.2260168 0.77780694 -0.56710982 0 7 0
1.2636548 0.80168521 -0.54472965 0 8 0
1.2942469 0.82109338 -0.51784861 0 9 0
1.3185712 0.83652514 -0.48739666 0 10 0
1.3405702 0.85048169 -0.45526287 0 11 0
1.3702133 0.86928779 -0.42471972 0 12 0
1.4081665 0.89336604 -0.39525461 0 13 0
1.4375931 0.91203475 -0.36188525 0 14 0
1.4599133 0.92619503 -0.32564485 0 15 0
1.480244 0.93909329 -0.28810838 0 16 0
1.5081482 0.95679617 -0.25100175 0 17 0
1.529855 0.97056735 -0.21174583 0 18 0
1.5727415 0.99777538 -0.17385054 0 19 0
1.5964478 1.0128151 -0.13217209 0 20 0
1.6307479 1.0345756 -0.089908175 0 21 0
1.6612105 1.0539017 -0.045740958 0 22 0
1.7114869 1.0857979 5.7863468e-05 0 23 0
1.7418406 1.1050549 0.048078924 0 24 0
1.7845197 1.1321312 0.098507024 0 25 0
1.8141167 1.150908 0.15031646 0 26 0
1.8734287 1.1885366 0.20721622 0 27 0
1.9231131 1.2200574 0.26630816 0 28 0
1.9878519 1.2611288 0.3309761 0 29 0
2.0316048 1.2888863 0.39556393 0 30 0
2.0813246 1.3204294 0.46440113 0 31 0
0.88115978 0.57687438 -0.62459707 0 0 0
0.9351418 0.61221516 -0.62816978 0 1 0
0.98001534 0.6415928 -0.62289566 0 2 0
1.0358801 0.67816609 -0.62188244 0 3 0
1.0988889 0.71941644 -0.62186259 0 4 0
1.1597648 0.75927049 -0.61724001 0 5 0
1.1811552 0.77327424 -0.58964765 0 6 0
1.2076305 0.79060704 -0.56378174 0 7 0
1.256811 0.82280439 -0.54680032 0 8 0
1.2591829 0.82435715 -0.508488 0 9 0
1.3051136 0.85442686 -0.48689291 0 10 0
1.3344132 0.87360865 -0.45737159 0 11 0
1.3658834 0.89421147 -0.4273012 0 12 0
1.3811277 0.90419155 -0.39125776 0 13 0
1.4216466 0.93071824 -0.36118752 0 14 0
1.4376998 0.94122791 -0.32366189 0 15 0
1.4522192 0.95073348 -0.28527319 0 16 0
1.5028355 0.98387074 -0.25243548 0 17 0
1.5131288 0.99060953 -0.21137163 0 18 0
1.5406195 1.008607 -0.17187798 0 19 0
1.5755889 1.0315007 -0.13165404 0 20 0
1.5974125 1.045788 -0.08888647 0 21 0
1.634473 1.0700507 -0.04542182 0 22 0
1.6864891 1.1041044 5.7546724e-05 0 23 0
1.7217852 1.1272119 0.04796578 0 24 0
1.7612637 1.1530576 0.098124273 0 25 0
1.8033582 1.1806158 0.15080978 0 26 0
1.8525176 1.2127993 0.20680217 0 27 0
1.9080271 1.24914 0.26666763 0 28 0
1.9496707 1.2764031 0.3276273 0 29 0
1.9963974 1.306994 0.39231119 0 30 0
2.043704 1.3379645 0.46023291 0 31 0
0.87270796 0.58935535 -0.62452167 0 0 0
0.92860353 0.62710261 -0.62974274 0 1 0
0.98031008 0.66202098 -0.62904137 0 2 0
1.0301511 0.69567949 -0.6243571 0 3 0
1.085603 0.73312718 -0.62021893 0 4 0
1.1411252 0.77062225 -0.61312741 0 5 0
1.1753565 0.79373932 -0.59236389 0 6 0
1.1861469 0.80102623 -0.55904752 0 7 0
1.2311832 0.83144009 -0.54077268 0 8 0
1.2597542 0.85073459 -0.51358342 0 9 0
1.2866471 0.86889583 -0.48459387 0 10 0
1.3117443 0.88584441 -0.45390123 0 11 0
1.3292092 0.8976388 -0.41980454 0 12 0
1.3693296 0.9247328 -0.39162499 0 13 0
1.390143 0.93878847 -0.35656103 0 14 0
1.4223809 0.96055937 -0.32327536 0 15 0
1.4327255 0.96754521 -0.28413522 0 16 0
1.4803543 0.99970978 -0.25103712 0 17 0
1.4956784 1.0100584 -0.21093193 0 18 0
1.5240165 1.0291957 -0.17165159 0 19 0
1.5541672 1.0495569 -0.1311059 0 20 0
1.5789256 1.0662768 -0.08869794 0 21 0
1.6142889 1.0901582 -0.045289896 0 22 0
1.654001 1.1169765 5.697786e-05 0 23 0
1.695923 1.1452872 0.047697101 0 24 0
1.7305489 1.1686707 0.097335041 0 25 0
1.7659609 1.192585 0.1490946 0 26 0
1.8202204 1.2292274 0.20513985 0 27 0
1.8733397 1.2650998 0.26432341 0 28 0
1.9382957 1.3089658 0.32883057 0 29 0
1.9644015 1.3265955 0.38971511 0 30 0
2.0182972 1.3629922 0.45885774 0 31 0
0.87608713 0.61007422 -0.63312393 0 0 0
0.91434842 0.63671798 -0.62619191 0 1 0
0.96334785 0.67083931 -0.62425452 0 2 0
1.0267873 0.71501619 -0.62845683 0 3 0
1.0792339 0.75153804 -0.62266207 0 4 0
1.1122094 0.77450097 -0.60348558 0 5 0
1.1594216 0.8073777 -0.59009665 0 6 0
1.176668 0.8193875 -0.56005037 0 7 0
1.2266787 0.85421312 -0.54410881 0 8 0
1.238856 0.86269289 -0.51004541 0 9 0
1.2628328 0.87938941 -0.48031613 0 10 0
1.2920839 0.89975876 -0.45150828 0 11 0
1.3250741 0.92273188 -0.42262658 0 12 0
1.3502373 0.94025463 -0.38997376 0 13 0
1.3685546 0.95301014 -0.35448626 0 14 0
1.3960853 0.97218144 -0.32042873 0 15 0
1.4198205 0.98870975 -0.28435335 0 16 0
1.4398761 1.0026758 -0.24658135 0 17 0
1.4647448 1.0199933 -0.20860702 0 18 0
1.4956436 1.0415101 -0.17011756 0 19 0
1.5318027 1.06669 -0.13049389 0 20 0
1.5661364 1.0905987 -0.088847317 0 21 0
1.5802628 1.1004357 -0.044772591 0 22 0
1.6200293 1.1281277 5.6358069e-05 0 23 0
1.6593295 1.1554949 0.047128256 0 24 0
1.7048366 1.1871843 0.096834689 0 25 0
1.7465026 1.2161989 0.14890625 0 26 0
1.7959292 1.2506177 0.20439869 0 27 0
1.847713 1.2866781 0.26327917 0 28 0
1.8971916 1.3211331 0.32503206 0 29 0
1.9446863 1.3542067 0.38960937 0 30 0
1.9996049 1.3924499 0.45909232 0 31 0
0.86684531 0.62224829 -0.63281679 0 0 0
0.90476972 0.64947164 -0.6259343 0 1 0
0.95049655 0.68229574 -0.62219155 0 2 0
1.0133498 0.72741371 -0.62654072 0 3 0
1.0770874 0.77316654 -0.6277442 0 4 0
1.0941347 0.78540361 -0.59971654 0 5 0
1.1302619 0.81133687 -0.58110666 0 6 0
1.1647396 0.83608598 -0.56001145 0 7 0
1.1998409 0.86128283 -0.53761774 0 8 0
1.2214813 0.87681699 -0.50800717 0 9 0
1.2437646 0.89281261 -0.4778752 0 10 0
1.2694616 0.91125876 -0.44811511 0 11 0
1.2878437 0.92445397 -0.41492996 0 12 0
1.3239063 0.95034075 -0.38625801 0 13 0
1.3497398 0.96888489 -0.35316876 0 14 0
1.378637 0.98962814 -0.31964242 0 15 0
1.4017383 1.006211 -0.28358734 0 16 0
1.4259931 1.0236218 -0.2466877 0 17 0
1.4564797 1.0455061 -0.20953973 0 18 0
1.4788527 1.0615661 -0.16991861 0 19 0
1.5175271 1.0893278 -0.13059267 0 20 0
1.5368963 1.1032317 -0.088075332 0 21 0
1.558869 1.1190042 -0.044615678 0 22 0
1.5906811 1.1418399 5.5899931e-05 0 23 0
1.6405178 1.1776143 0.047067877 0 24 0
1.6806834 1.2064463 0.096433751 0 25 0
1.7291046 1.2412046 0.14892237 0 26 0
1.7670691 1.2684567 0.20315963 0 27 0
1.8323724 1.3153335 0.26374891 0 28 0
1.8767308 1.3471752 0.32479697 0 29 0
1.9242855 1.3813115 0.3894434 0 30 0
1.9539312 1.4025922 0.45316887 0 31 0
0.84466243 0.62483478 -0.623088 0 0 0
0.90302378 0.66800725 -0.63127655 0 1 0
0.94510043 0.69913322 -0.62514579 0 2 0
0.99939138 0.73929471 -0.62438911 0 3 0
1.0462582 0.77396417 -0.61616987 0 4 0
1.0947309 0.80982155 -0.60633469 0 5 0
1.1179326 0.82698488 -0.58079404 0 6 0
1.1509889 0.85143822 -0.55920237 0 7 0
1.1808015 0.87349194 -0.53463399 0 8 0
1.1904329 0.88061666 -0.50028527 0 9 0
1.2400022 0.91728526 -0.48142487 0 10 0
1.2621921 0.93370026 -0.4502205 0 11 0
1.2709327 0.940166 -0.4137747 0 12 0
1.3061523 0.96621954 -0.38507372 0 13 0
1.3268442 0.98152632 -0.35081807 0 14 0
1.3544996 1.0019842 -0.31733879 0 15 0
1.3792527 1.0202951 -0.28196388 0 16 0
1.4079005 1.0414872 -0.24611145 0 17 0
1.4332354 1.0602286 -0.20835756 0 18 0
1.4520843 1.074172 -0.16859226 0 19 0
1.4866997 1.0997785 -0.12928121 0 20 0
1.5035859 1.1122701 -0.087069847 0 21 0
1.5363007 1.1364706 -0.044430774 0 22 0
1.5732089 1.1637733 5.5865588e-05 0 23 0
1.6132257 1.1933755 0.046770129 0 24 0
1.6511856 1.2214562 0.095734581 0 25 0
1.6967345 1.2551508 0.14766662 0 26 0
1.7587069 1.3009945 0.20431824 0 27 0
1.7927505 1.3261781 0.26075137 0 28 0
1.84863 1.3675146 0.32328811 0 29 0
1.8994015 1.4050727 0.38843772 0 30 0
1.9384813 1.4339818 0.45429945 0 31 0
0.83982199 0.64005184 -0.62621123 0 0 0
0.88530272 0.67471403 -0.62557548 0 1 0
0.93377608 0.71165693 -0.62432903 0 2 0
0.98343951 0.74950683 -0.6210618 0 3 0
1.0465089 0.7975738 -0.62297696 0 4 0
1.0877587 0.82901132 -0.6089828 0 5 0
1.1101432 0.84607124 -0.58297914 0 6 0
1.1259571 0.85812348 -0.55295169 0 7 0
1.1581728 0.88267595 -0.53005445 0 8 0
1.1869102 0.90457755 -0.5041945 0 9 0
1.2201147 0.92988366 -0.47882211 0 10 0
1.2466544 0.9501102 -0.44948304 0 11 0
1.2681969 0.96652848 -0.41734535 0 12 0
1.287775 0.98144948 -0.38375804 0 13 0
1.3146038 1.0018964 -0.35133737 0 14 0
1.3349621 1.0174121 -0.31614089 0 15 0
1.3615137 1.0376477 -0.28134495 0 16 0
1.372455 1.0459864 -0.24250765 0 17 0
1.4022057 1.0686603 -0.20604917 0 18 0
1.4350089 1.0936605 -0.16840997 0 19 0
1.4595866 1.1123919 -0.12829493 0 20 0
1.5007827 1.1437886 -0.087846562 0 21 0
1.5058981 1.1476872 -0.044022098 0 22 0
1.5527472 1.1833922 5.5734767e-05 0 23 0
1.6015269 1.2205685 0.046932656 0 24 0
1.6179128 1.2330567 0.094819032 0 25 0
1.670855 1.2734056 0.14698556 0 26 0
1.7246691 1.3144187 0.20252885 0 27 0
1.7773364 1.3545579 0.26130265 0 28 0
1.8205752 1.3875114 0.32182208 0 29 0
1.8591703 1.4169258 0.38431844 0 30 0
1.909901 1.4555892 0.45243782 0 31 0
0.83203322 0.65315014 -0.62731028 0 0 0
0.87151432 0.68414301 -0.62268806 0 1 0
0.92439198 0.72565222 -0.62493533 0 2 0
0.97614163 0.76627594 -0.62331575 0 3 0
1.0258826 0.80532283 -0.61749691 0 4 0
1.0720382 0.84155518 -0.60686326 0 5 0
1.0990722 0.86277705 -0.58359063 0 6 0
1.1183258 0.87789124 -0.555318 0 7 0
1.147467 0.90076721 -0.53100115 0 8 0
1.1737075 0.9213661 -0.50413662 0 9 0
1.1984209 0.94076622 -0.4755443 0 10 0
1.2191486 0.95703763 -0.44445932 0 11 0
1.2484987 0.98007751 -0.41543686 0 12 0
1.2784969 1.0036262 -0.38523456 0 13 0
1.2989104 1.0196509 -0.35100779 0 14 0
1.3133988 1.0310246 -0.31449696 0 15 0
1.337448 1.0499032 -0.27944872 0 16 0
1.3660845 1.0723829 -0.24406917 0 17 0
1.3819845 1.0848646 -0.20533852 0 18 0
1.4164813 1.1119447 -0.16808623 0 19 0
1.4383661 1.1291243 -0.12783715 0 20 0
1.47716 1.1595777 -0.087426394 0 21 0
1.5086409 1.1842904 -0.044593249 0 22 0
1.5376931 1.2070966 5.5808865e-05 0 23 0
1.5642542 1.2279471 0.046350703 0 24 0
1.6029905 1.2583554 0.094990343 0 25 0
1.6418046 1.2888247 0.14603786 0 26 0
1.6912085 1.3276068 0.20081048 0 27 0
1.7537528 1.3767046 0.26070577 0 28 0
1.801581 1.4142499 0.3220098 0 29 0
1.8450216 1.4483509 0.38563958 0 30 0
1.8782442 1.4744308 0.4498919 0 31 0
0.81895417 0.66204387 -0.62452984 0 0 0
0.8624016 0.69716686 -0.62324309 0 1 0
0.90984279 0.7355184 -0.62215292 0 2 0
0.96190423 0.77760494 -0.62126803 0 3 0
1.0099357 0.81643373 -0.6148693 0 4 0
1.0593569 0.85638589 -0.60656148 0 5 0
1.0833762 0.87580305 -0.58185297 0 6 0
1.1048603 0.89317089 -0.55492294 0 7 0
1.1214572 0.90658784 -0.52491605 0 8 0
1.1792778 0.95333004 -0.51233774 0 9 0
1.1818292 0.95539272 -0.47433835 0 10 0
1.198591 0.96894294 -0.44197553 0 11 0
1.232586 0.99642456 -0.41484523 0 12 0
1.2484989 1.0092885 -0.38050964 0 13 0
1.2704595 1.0270416 -0.34725642 0 14 0
1.2970603 1.0485456 -0.31414625 0 15 0
1.3212578 1.068107 -0.2792317 0 16 0
