# .PCD v0.7 - Point Cloud Data file format
VERSION 0.7
FIELDS x y z intensity ring time
SIZE 4 4 4 4 2 4
TYPE F F F F U F
COUNT 1 1 1 1 1 1
WIDTH 1224
HEIGHT 1
VIEWPOINT 0 0 0 1 0 0 0
POINTS 1224
DATA ascii
1.2830566 1.1986635 -0.16389215 0 19 0
1.3003681 1.2148362 -0.12440705 0 20 0
1.3402315 1.2520777 -0.085385844 0 21 0
1.3708956 1.2807248 -0.043619294 0 22 0
1.3936925 1.3020222 5.4449196e-05 0 23 0
1.4340786 1.339752 0.04574177 0 24 0
1.4595296 1.363529 0.093100592 0 25 0
1.5042529 1.4053106 0.14403096 0 26 0
1.5457951 1.4441203 0.19757508 0 27 0
1.5973048 1.492242 0.25560012 0 28 0
1.6331991 1.5257752 0.31422839 0 29 0
1.6768414 1.566547 0.37727943 0 30 0
1.7117691 1.5991774 0.44135934 0 31 0
0.76725596 0.73763537 -0.63119572 0 0 0
0.80288863 0.77189243 -0.62594098 0 1 0
0.85467613 0.82168061 -0.63046724 0 2 0
0.8874321 0.853172 -0.6183188 0 3 0
0.91871876 0.88325083 -0.6033951 0 4 0
0.96647787 0.92916614 -0.59697282 0 5 0
0.99384946 0.95548105 -0.57581735 0 6 0
1.0178494 0.97855455 -0.55149174 0 7 0
1.0406615 1.0004858 -0.52546859 0 8 0
1.0651397 1.024019 -0.4992027 0 9 0
1.0804017 1.0386918 -0.4677878 0 10 0
1.0977776 1.0553969 -0.43668848 0 11 0
1.1303716 1.0867325 -0.41041213 0 12 0
1.1398948 1.0958881 -0.37477654 0 13 0
1.1547474 1.1101674 -0.34049174 0 14 0
1.1839783 1.1382698 -0.3093468 0 15 0
1.2048694 1.1583544 -0.27469277 0 16 0
1.2264509 1.1791028 -0.23909342 0 17 0
1.2398874 1.1920204 -0.20101643 0 18 0
1.2727149 1.2235806 -0.16479139 0 19 0
1.2973843 1.2472976 -0.12581672 0 20 0
1.3144518 1.2637062 -0.08488711 0 21 0
1.33136 1.2799617 -0.042939875 0 22 0
1.3632166 1.3105885 5.3985914e-05 0 23 0
1.4089056 1.3545135 0.045552578 0 24 0
1.4377245 1.3822199 0.092962161 0 25 0
1.4854674 1.4281197 0.14417474 0 26 0
1.5192662 1.4606136 0.19683628 0 27 0
1.576207 1.5153563 0.25566873 0 28 0
1.6114997 1.5492864 0.31428784 0 29 0
1.6490026 1.5853415 0.37608287 0 30 0
1.6852492 1.6201887 0.44045576 0 31 0
0.75060612 0.74259079 -0.62617844 0 0 0
0.79160672 0.78315353 -0.62582052 0 1 0
0.83921611 0.83025455 -0.62776488 0 2 0
0.88907707 0.87958306 -0.62817258 0 3 0
0.91475314 0.90498501 -0.6092357 0 4 0
0.94968808 0.93954682 -0.5948478 0 5 0
0.98422319 0.97371322 -0.57825577 0 6 0
1.0068442 0.99609262 -0.55319721 0 7 0
1.0125269 1.0017146 -0.51844907 0 8 0
1.0400734 1.028967 -0.49430683 0 9 0
1.0687382 1.0573257 -0.46924245 0 10 0
1.0882751 1.076654 -0.43899375 0 11 0
1.1025232 1.0907499 -0.40592799 0 12 0
1.1319282 1.1198409 -0.37738857 0 13 0
1.1327832 1.1206868 -0.33871049 0 14 0
1.1706403 1.1581397 -0.31016132 0 15 0
1.1861782 1.1735116 -0.27423286 0 16 0
1.1972141 1.1844298 -0.23667455 0 17 0
1.2192391 1.2062196 -0.20044741 0 18 0
1.2541921 1.2407992 -0.16467576 0 19 0
1.2789696 1.2653122 -0.1257744 0 20 0
1.2923743 1.2785736 -0.084634542 0 21 0
1.3282057 1.3140225 -0.043440305 0 22 0
1.3493168 1.3349082 5.4186585e-05 0 23 0
1.3783802 1.3636612 0.045192081 0 24 0
1.4106019 1.3955388 0.092490532 0 25 0
1.4578528 1.4422852 0.1434835 0 26 0
1.4857293 1.469864 0.19519705 0 27 0
1.5434914 1.5270092 0.25388134 0 28 0
1.5885198 1.5715568 0.31416097 0 29 0
1.6314095 1.6139886 0.37730056 0 30 0
1.6697985 1.6519676 0.44255221 0 31 0
0.73653442 0.74982977 -0.6233291 0 0 0
0.77357411 0.78753805 -0.62041253 0 1 0
0.81867534 0.83345342 -0.62125975 0 2 0
0.86749399 0.88315332 -0.62179089 0 3 0
0.89929169 0.91552502 -0.60760361 0 4 0
0.93354315 0.95039475 -0.5931952 0 5 0
0.959001 0.9763121 -0.57158887 0 6 0
1.0017339 1.0198164 -0.55835241 0 7 0
0.99658018 1.0145696 -0.51766658 0 8 0
1.0314713 1.0500906 -0.497311 0 9 0
1.0453484 1.0642183 -0.46561322 0 10 0
1.0732553 1.0926288 -0.43919864 0 11 0
1.0910594 1.1107545 -0.40751913 0 12 0
1.0982546 1.1180794 -0.37145928 0 13 0
1.1224347 1.142696 -0.34047189 0 14 0
1.140136 1.1607169 -0.30644962 0 15 0
1.1663536 1.1874076 -0.27355084 0 16 0
1.1752672 1.1964822 -0.23569731 0 17 0
1.1994717 1.2211237 -0.20005062 0 18 0
1.2319688 1.2542074 -0.16409814 0 19 0
1.2471623 1.2696751 -0.12442089 0 20 0
1.2733597 1.2963454 -0.084595792 0 21 0
1.3031321 1.3266551 -0.043236874 0 22 0
1.3182679 1.3420643 5.3705633e-05 0 23 0
1.3576828 1.3821906 0.045157507 0 24 0
1.3992646 1.424523 0.093074553 0 25 0
1.4286145 1.4544028 0.14264011 0 26 0
1.4717379 1.4983045 0.19615632 0 27 0
1.5318625 1.5595145 0.25561404 0 28 0
1.5647372 1.5929826 0.31393471 0 29 0
1.6044964 1.6334594 0.37644497 0 30 0
1.6497562 1.6795363 0.44356629 0 31 0
0.7330417 0.76795691 -0.62961137 0 0 0
0.77089912 0.80761749 -0.62747395 0 1 0
0.81318289 0.8519153 -0.62628102 0 2 0
0.85430449 0.89499551 -0.62145561 0 3 0
0.88774133 0.93002498 -0.60873139 0 4 0
0.92449039 0.9685244 -0.59619063 0 5 0
0.95472473 1.0001988 -0.57751381 0 6 0
0.97490001 1.0213351 -0.55148745 0 7 0
0.99360031 1.0409261 -0.52380431 0 8 0
1.0119998 1.060202 -0.49518892 0 9 0
1.0261558 1.0750322 -0.46387085 0 10 0
1.0516925 1.1017852 -0.43678352 0 11 0
1.0730882 1.1242 -0.40677524 0 12 0
1.086647 1.1384047 -0.37300634 0 13 0
1.1111726 1.1640984 -0.3420749 0 14 0
1.1291928 1.1829768 -0.30802789 0 15 0
1.1502997 1.2050892 -0.27380311 0 16 0
1.1577352 1.2128788 -0.2356388 0 17 0
1.196247 1.2532248 -0.20248379 0 18 0
1.2167394 1.2746935 -0.16448301 0 19 0
1.2273381 1.2857969 -0.12426649 0 20 0
1.2483511 1.3078108 -0.084169343 0 21 0
1.2779931 1.3388646 -0.043034215 0 22 0
1.3054321 1.3676106 5.3974662e-05 0 23 0
1.3410746 1.4049507 0.045269329 0 24 0
1.3659818 1.4310443 0.092213728 0 25 0
1.4084917 1.475579 0.14272511 0 26 0
1.4461335 1.5150137 0.19561392 0 27 0
1.4980977 1.5694529 0.25370237 0 28 0
1.5528017 1.6267626 0.31617931 0 29 0
1.5851161 1.660616 0.37743604 0 30 0
1.6185914 1.6956859 0.44166756 0 31 0
0.70972586 0.76516294 -0.61892873 0 0 0
0.75334698 0.81219131 -0.62258601 0 1 0
0.80255884 0.86524713 -0.62757272 0 2 0
0.84818727 0.91443962 -0.62646282 0 3 0
0.87890899 0.94756109 -0.61191249 0 4 0
0.91204327 0.98328346 -0.5971787 0 5 0
0.93135387 1.0041025 -0.57201195 0 6 0
0.94952226 1.02369 -0.54536444 0 7 0
0.97326243 1.0492845 -0.52094692 0 8 0
0.98887432 1.0661159 -0.49128976 0 9 0
1.0127831 1.0918921 -0.46484303 0 10 0
1.0324508 1.1130961 -0.43536448 0 11 0
1.0477148 1.1295525 -0.40324438 0 12 0
1.0745714 1.1585066 -0.37451491 0 13 0
1.094165 1.1796308 -0.342002 0 14 0
1.1117293 1.198567 -0.30791238 0 15 0
1.1283579 1.2164946 -0.272697 0 16 0
1.1504953 1.2403611 -0.23775439 0 17 0
1.1719755 1.2635192 -0.20141605 0 18 0
1.1902039 1.2831714 -0.16336198 0 19 0
1.2081999 1.3025731 -0.12420376 0 20 0
1.2232566 1.3188058 -0.083741531 0 21 0
1.2555858 1.3536602 -0.042927727 0 22 0
1.2854127 1.3858169 5.3961547e-05 0 23 0
1.3139278 1.4165595 0.045032784 0 24 0
1.3434408 1.4483777 0.09208212 0 25 0
1.3853773 1.4935899 0.1425346 0 26 0
1.4253554 1.5366907 0.19575852 0 27 0
1.4839331 1.599844 0.25515547 0 28 0
1.5308487 1.6504242 0.31648698 0 29 0
1.5493857 1.6704091 0.37458292 0 30 0
1.5817926 1.7053473 0.43824193 0 31 0
0.70552963 0.7828176 -0.62497669 0 0 0
0.73944062 0.82044339 -0.62073487 0 1 0
0.78951818 0.87600666 -0.62711596 0 2 0
0.835581 0.92711556 -0.62688899 0 3 0
0.86830044 0.9634192 -0.61406446 0 4 0
0.89086807 0.98845905 -0.59251702 0 5 0
0.91177905 1.0116608 -0.56882483 0 6 0
0.94576162 1.049366 -0.55177486 0 7 0
0.95630676 1.0610663 -0.51994723 0 8 0
0.97912359 1.0863826 -0.49412027 0 9 0
1.0026132 1.1124454 -0.46743566 0 10 0
1.0145463 1.1256858 -0.43456429 0 11 0
1.0380516 1.1517659 -0.40582865 0 12 0
1.0571673 1.1729758 -0.37426233 0 13 0
1.0771914 1.1951933 -0.34200877 0 14 0
1.0900071 1.2094129 -0.30665916 0 15 0
1.1084062 1.2298276 -0.27210155 0 16 0
1.1281656 1.2517515 -0.23681819 0 17 0
1.1533763 1.2797241 -0.20134698 0 18 0
1.1729243 1.3014134 -0.16353026 0 19 0
1.1899734 1.3203301 -0.12426012 0 20 0
1.2038212 1.3356949 -0.083711252 0 21 0
1.231617 1.3665355 -0.042772606 0 22 0
1.2679838 1.4068863 5.4069711e-05 0 23 0
1.2918453 1.4333618 0.044974498 0 24 0
1.342922 1.4900336 0.093498811 0 25 0
1.3649437 1.5144678 0.14264795 0 26 0
1.4046483 1.5585219 0.19595829 0 27 0
1.4450644 1.6033654 0.25239241 0 28 0
1.5037698 1.6685017 0.31579372 0 29 0
1.539528 1.7081771 0.37807205 0 30 0
1.5561509 1.726621 0.43794006 0 31 0
0.69354165 0.79202175 -0.62433571 0 0 0
0.73661989 0.84121692 -0.62841034 0 1 0
0.77551419 0.88563406 -0.62599742 0 2 0
0.81780237 0.933927 -0.62351584 0 3 0
0.85064107 0.97142863 -0.61134642 0 4 0
0.87003165 0.99357265 -0.58805716 0 5 0
0.89390725 1.0208385 -0.56673294 0 6 0
0.92498636 1.0563307 -0.54841918 0 7 0
0.93611163 1.0690356 -0.51723361 0 8 0
0.95076638 1.0857713 -0.48760262 0 9 0
0.98765469 1.1278976 -0.46794051 0 10 0
1.0000644 1.1420696 -0.43531859 0 11 0
1.0130473 1.156896 -0.40248582 0 12 0
1.0390792 1.1866242 -0.37383339 0 13 0
1.0581173 1.2083656 -0.34140921 0 14 0
1.0750085 1.2276553 -0.30735168 0 15 0
1.0924635 1.2475889 -0.27254361 0 16 0
1.1106908 1.2684044 -0.23693676 0 17 0
1.1288723 1.2891675 -0.20027003 0 18 0
1.1418275 1.3039623 -0.16178033 0 19 0
1.1550215 1.3190299 -0.12256929 0 20 0
1.1903449 1.3593692 -0.084118545 0 21 0
1.2178154 1.3907403 -0.042980216 0 22 0
1.2498803 1.4273583 5.4163385e-05 0 23 0
1.2744471 1.4554135 0.045089427 0 24 0
1.3010466 1.48579 0.092054546 0 25 0
1.3382121 1.5282329 0.14212577 0 26 0
1.3909409 1.5884489 0.19719766 0 27 0
1.434623 1.6383337 0.25463843 0 28 0
1.4892938 1.7007675 0.31783342 0 29 0
1.5126183 1.727404 0.3774969 0 30 0
1.5378108 1.7561737 0.4398078 0 31 0
0.68783039 0.80856144 -0.62954831 0 0 0
0.72500718 0.85226363 -0.62884599 0 1 0
0.75732583 0.89025503 -0.62153792 0 2 0
0.80603081 0.94750887 -0.62481701 0 3 0
0.82806665 0.97341257 -0.60507387 0 4 0
0.86714202 1.0193466 -0.59590465 0 5 0
0.88544047 1.0408568 -0.57075197 0 6 0
0.90757406 1.0668755 -0.54709339 0 7 0
0.92338061 1.0854565 -0.5187307 0 8 0
0.94142532 1.1066685 -0.49088547 0 9 0
0.95524883 1.1229184 -0.46015495 0 10 0
0.98435861 1.1571376 -0.43564692 0 11 0
1.0089126 1.1860014 -0.40754583 0 12 0
1.029505 1.2102083 -0.37658241 0 13 0
1.0386702 1.2209822 -0.34073851 0 14 0
1.05046 1.2348413 -0.30535516 0 15 0
1.0869081 1.2776871 -0.2756919 0 16 0
1.0916859 1.2833035 -0.23677675 0 17 0
1.1108328 1.3058112 -0.20036504 0 18 0
1.131008 1.3295276 -0.16292697 0 19 0
1.1502032 1.352092 -0.12409899 0 20 0
1.1714127 1.3770242 -0.08416488 0 21 0
1.2058719 1.417532 -0.04327035 0 22 0
1.221208 1.4355597 5.3805801e-05 0 23 0
1.2470216 1.4659042 0.044856865 0 24 0
1.2739168 1.4975203 0.091642208 0 25 0
1.3292581 1.5625753 0.14353548 0 26 0
1.362642 1.6018189 0.19641605 0 27 0
1.4141401 1.6623563 0.2552 0 28 0
1.4670132 1.72451 0.31831369 0 29 0
1.4881853 1.7493982 0.3776097 0 30 0
1.5086099 1.7734078 0.43867111 0 31 0
0.67869687 0.82135934 -0.63188434 0 0 0
0.71072495 0.8601197 -0.62707222 0 1 0
0.74138701 0.89722693 -0.61893332 0 2 0
0.79637957 0.96377897 -0.62796491 0 3 0
0.82219923 0.99502593 -0.61113083 0 4 0
0.85287166 1.0321457 -0.59618944 0 5 0
0.8725186 1.0559225 -0.57210636 0 6 0
0.89152342 1.0789222 -0.54667115 0 7 0
0.90281808 1.0925909 -0.51591182 0 8 0
0.92594296 1.1205766 -0.49112558 0 9 0
0.94250846 1.1406243 -0.46183503 0 10 0
0.95933741 1.1609906 -0.43188357 0 11 0
0.98338932 1.1900983 -0.40407541 0 12 0
0.99128217 1.1996502 -0.36884412 0 13 0
1.0164167 1.2300681 -0.33917931 0 14 0
1.0375961 1.2556994 -0.30680904 0 15 0
1.0596133 1.2823447 -0.27339631 0 16 0
1.066859 1.2911134 -0.23537613 0 17 0
1.096282 1.326721 -0.20114513 0 18 0
1.1102628 1.3436406 -0.16269232 0 19 0
1.1362008 1.3750308 -0.12469894 0 20 0
1.1584598 1.4019686 -0.084667355 0 21 0
1.1810051 1.4292531 -0.043107715 0 22 0
1.1993692 1.4514772 5.3753458e-05 0 23 0
1.2361162 1.4959484 0.045230176 0 24 0
1.2625424 1.5279294 0.092387766 0 25 0
1.2969049 1.569515 0.14245316 0 26 0
1.340122 1.6218164 0.19649592 0 27 0
1.3932005 1.6860521 0.25575015 0 28 0
1.4449339 1.7486597 0.31892112 0 29 0
1.4703039 1.7793626 0.37949604 0 30 0
1.4939151 1.8079368 0.44187766 0 31 0
0.65233111 0.81286919 -0.61810625 0 0 0
0.69656414 0.86798793 -0.62547565 0 1 0
0.73212922 0.91230553 -0.6220423 0 2 0
0.78027767 0.97230327 -0.62617791 0 3 0
0.80928659 1.0084513 -0.61219925 0 4 0
0.82832325 1.0321729 -0.58929634 0 5 0
0.84394062 1.0516336 -0.56318009 0 6 0
0.86978853 1.0838428 -0.54280066 0 7 0
0.89350331 1.1133937 -0.51964253 0 8 0
0.90797621 1.1314284 -0.49013543 0 9 0
0.92476165 1.1523447 -0.46117392 0 10 0
0.94799924 1.181301 -0.4343468 0 11 0
0.96214259 1.198925 -0.40235528 0 12 0
0.98174888 1.2233564 -0.37177423 0 13 0
0.99972486 1.2457563 -0.33952469 0 14 0
1.0201676 1.27123 -0.30700445 0 15 0
1.0327239 1.2868763 -0.27118319 0 16 0
1.0538023 1.3131421 -0.23661804 0 17 0
1.0688139 1.331848 -0.19958259 0 18 0
1.0964597 1.3662976 -0.16351867 0 19 0
1.110701 1.3840435 -0.12406182 0 20 0
1.1440234 1.4255667 -0.085094854 0 21 0
1.1613883 1.4472048 -0.043143362 0 22 0
1.1929663 1.4865544 5.4414548e-05 0 23 0
1.2111226 1.5091788 0.045101441 0 24 0
1.2527449 1.5610443 0.093296312 0 25 0
1.2907903 1.6084527 0.14429557 0 26 0
1.3263358 1.6527458 0.1979229 0 27 0
1.3723756 1.710116 0.25639442 0 28 0
1.4301176 1.7820684 0.32124797 0 29 0
1.4455562 1.8013062 0.37972432 0 30 0
1.469833 1.8315576 0.44246349 0 31 0
0.63818514 0.81898397 -0.61574686 0 0 0
0.6899513 0.88541555 -0.63085312 0 1 0
0.71972919 0.92362952 -0.62267548 0 2 0
0.76709664 0.98441625 -0.62684345 0 3 0
0.79428494 1.019307 -0.61182505 0 4 0
0.81658876 1.0479296 -0.59155858 0 5 0
0.83148706 1.0670485 -0.56500381 0 6 0
0.85772383 1.1007183 -0.54504788 0 7 0
0.88419563 1.1346896 -0.52362138 0 8 0
0.90293247 1.1587347 -0.496315 0 9 0
0.91135037 1.1695373 -0.46278661 0 10 0
0.9273358 1.1900514 -0.43263948 0 11 0
0.95297062 1.2229487 -0.40579832 0 12 0
0.9600544 1.2320392 -0.37019897 0 13 0
0.97841918 1.2556068 -0.33835787 0 14 0
0.99381477 1.275364 -0.30453628 0 15 0
1.0161237 1.303993 -0.27169743 0 16 0
1.0406393 1.335454 -0.2379301 0 17 0
1.0489305 1.3460941 -0.19944711 0 18 0
1.0714151 1.3749486 -0.16270198 0 19 0
1.0986296 1.409873 -0.12495475 0 20 0
1.1157246 1.431811 -0.084505662 0 21 0
1.1435151 1.4674746 -0.043255258 0 22 0
1.16334 1.4929159 5.403236e-05 0 23 0
1.1906428 1.5279539 0.045148604 0 24 0
1.226063 1.5734085 0.092976898 0 25 0
1.2600482 1.6170217 0.14343162 0 26 0
1.3045143 1.6740853 0.198222 0 27 0
1.3586227 1.7435225 0.25846094 0 28 0
1.4021907 1.7994335 0.32072747 0 29 0
1.4200103 1.8223014 0.37982664 0 30 0
1.4431541 1.8520019 0.4423669 0 31 0
0.63924491 0.84501541 -0.62837481 0 0 0
0.67045933 0.88627768 -0.62456584 0 1 0
0.7045638 0.93136019 -0.62102485 0 2 0
0.75500679 0.99804062 -0.62857324 0 3 0
0.78631681 1.0394292 -0.61708426 0 4 0
0.79373193 1.0492313 -0.58582002 0 5 0
0.81554192 1.0780617 -0.56459641 0 6 0
0.83775836 1.1074296 -0.54237783 0 7 0
0.8457312 1.1179689 -0.51026684 0 8 0
0.87689668 1.1591665 -0.49107355 0 9 0
0.89068699 1.1773958 -0.46080428 0 10 0
0.91464806 1.2090697 -0.43474951 0 11 0
0.93470544 1.2355835 -0.40550992 0 12 0
0.95018655 1.256048 -0.37328815 0 13 0
0.96300852 1.2729974 -0.339295 0 14 0
0.98523235 1.3023748 -0.30758721 0 15 0
1.0066857 1.3307341 -0.27423882 0 16 0
1.0089653 1.3337474 -0.23502897 0 17 0
1.0395705 1.3742043 -0.20138678 0 18 0
1.0519502 1.3905691 -0.16275199 0 19 0
1.0833033 1.4320147 -0.12553 0 20 0
1.0932087 1.4451084 -0.084358312 0 21 0
1.1254464 1.4877235 -0.04337284 0 22 0
1.1396003 1.5064332 5.3925702e-05 0 23 0
1.1805606 1.5605785 0.045608632 0 24 0
1.2056321 1.5937204 0.093147904 0 25 0
1.2418334 1.6415749 0.1440181 0 26 0
1.2880925 1.7027245 0.19940957 0 27 0
1.3260497 1.7529 0.25701109 0 28 0
1.3822557 1.8271985 0.32211685 0 29 0
1.4076312 1.8607422 0.38360015 0 30 0
1.435652 1.897783 0.44834784 0 31 0
0.62261426 0.84798789 -0.62389433 0 0 0
0.65794551 0.89610833 -0.62479299 0 1 0
0.69959635 0.95283592 -0.62860328 0 2 0
0.73600882 1.002429 -0.62463814 0 3 0
0.76558602 1.0427125 -0.61246508 0 4 0
0.7816357 1.0645719 -0.58807838 0 5 0
0.80438167 1.0955514 -0.56766808 0 6 0
0.82311773 1.1210696 -0.54323232 0 7 0
0.83366227 1.1354309 -0.51273811 0 8 0
0.85865331 1.1694682 -0.49018091 0 9 0
0.88045621 1.1991634 -0.46434379 0 10 0
0.89302552 1.2162825 -0.43270254 0 11 0
0.91084719 1.2405553 -0.40282154 0 12 0
0.93117982 1.268248 -0.37291458 0 13 0
0.93977737 1.2799575 -0.33753031 0 14 0
0.96978575 1.3208284 -0.30863547 0 15 0
0.97928214 1.3337623 -0.27194637 0 16 0
0.99057299 1.3491402 -0.23521884 0 17 0
1.0121125 1.3784766 -0.19986939 0 18 0
1.0449911 1.4232566 -0.16481023 0 19 0
1.0605789 1.4444869 -0.12527977 0 20 0
1.0888603 1.4830055 -0.085651986 0 21 0
1.1087358 1.5100754 -0.043557357 0 22 0
1.1213725 1.5272863 5.4092074e-05 0 23 0
1.1600523 1.5799675 0.045685332 0 24 0
1.1949073 1.6274393 0.094109386 0 25 0
1.229308 1.6742924 0.14532989 0 26 0
1.2624615 1.7194468 0.19923131 0 27 0
1.3131102 1.7884293 0.25943804 0 28 0
1.3539709 1.8440807 0.32164356 0 29 0
1.3870176 1.8890896 0.38531184 0 30 0
1.4040346 1.9122665 0.44697598 0 31 0
0.61036021 0.85673624 -0.6238392 0 0 0
0.6460073 0.90677255 -0.62571734 0 1 0
0.68532151 0.9619562 -0.62808436 0 2 0
0.72369236 1.0158157 -0.62646091 0 3 0
0.75175452 1.0552053 -0.61341995 0 4 0
0.76505393 1.0738732 -0.58710718 0 5 0
0.78446031 1.101113 -0.56467402 0 6 0
0.80948228 1.1362354 -0.54491091 0 7 0
0.81412655 1.1427542 -0.51073062 0 8 0
0.84381467 1.1844262 -0.49133778 0 9 0
0.85764468 1.2038388 -0.46135345 0 10 0
0.87353188 1.2261389 -0.43171671 0 11 0
0.89222968 1.2523843 -0.40247449 0 12 0
0.91605699 1.2858297 -0.37419057 0 13 0
0.93718529 1.3154866 -0.34332684 0 14 0
0.93933666 1.3185062 -0.30491996 0 15 0
0.95865268 1.3456193 -0.27153841 0 16 0
0.98474139 1.382239 -0.23850766 0 17 0
1.0002536 1.4040127 -0.20147544 0 18 0
1.0200366 1.4317813 -0.16408989 0 19 0
1.0395026 1.4591049 -0.12524432 0 20 0
1.0649872 1.4948765 -0.085448444 0 21 0
1.0870425 1.5258344 -0.043558653 0 22 0
1.11022 1.5583677 5.4624474e-05 0 23 0
1.1463238 1.6090451 0.046046969 0 24 0
1.1783552 1.6540062 0.094660647 0 25 0
1.2174782 1.7089216 0.14680806 0 26 0
1.2440331 1.7461954 0.20024693 0 27 0
1.2835789 1.8017042 0.25867209 0 28 0
1.3258256 1.8610041 0.32125244 0 29 0
1.3576441 1.9056665 0.38468996 0 30 0
1.3932925 1.9557046 0.45242146 0 31 0
0.59811884 0.86550373 -0.62392557 0 0 0
0.63172823 0.91413796 -0.62449628 0 1 0
0.67162228 0.97186637 -0.62821388 0 2 0
0.71290934 1.0316105 -0.62984419 0 3 0
0.73030978 1.0567896 -0.60820192 0 4 0
0.753425 1.0902385 -0.59009808 0 5 0
0.77329707 1.1189942 -0.56810945 0 6 0
0.78415138 1.1347008 -0.53873712 0 7 0
0.80985409 1.1718937 -0.51852006 0 8 0
0.82754129 1.1974878 -0.49179211 0 9 0
0.84320581 1.2201551 -0.46293366 0 10 0
0.85480231 1.2369357 -0.43116608 0 11 0
0.87454218 1.2655002 -0.4026255 0 12 0
0.88774812 1.2846098 -0.37009984 0 13 0
0.90365696 1.3076305 -0.33786616 0 14 0
0.93100899 1.34721 -0.30844465 0 15 0
0.93960518 1.3596492 -0.27162778 0 16 0
0.96204567 1.3921216 -0.23781249 0 17 0
0.97518563 1.4111357 -0.20047402 0 18 0
1.0005814 1.4478843 -0.1642772 0 19 0
1.0292079 1.4893082 -0.12655939 0 20 0
1.040159 1.5051548 -0.085176215 0 21 0
1.0715607 1.5505946 -0.043823149 0 22 0
1.0868222 1.5726783 5.4575226e-05 0 23 0
1.1332113 1.6398054 0.046458315 0 24 0
1.1534193 1.6690474 0.094566926 0 25 0
1.1890715 1.7206378 0.14633746 0 26 0
1.2313733 1.7818502 0.20229377 0 27 0
1.2692422 1.8366481 0.26105398 0 28 0
1.3039534 1.8868768 0.32246378 0 29 0
1.3420662 1.9420274 0.38811249 0 30 0
1.3660747 1.976769 0.45272464 0 31 0
0.59238493 0.88399506 -0.63107854 0 0 0
0.61584508 0.91900384 -0.62173486 0 1 0
0.65194243 0.97287065 -0.62276739 0 2 0
0.70036513 1.0451301 -0.6319133 0 3 0
0.71716076 1.0701935 -0.60994589 0 4 0
0.73893064 1.1026801 -0.59104693 0 5 0
0.75217432 1.1224432 -0.56433672 0 6 0
0.77418453 1.1552881 -0.54319477 0 7 0
0.79388064 1.18468 -0.51909655 0 8 0
0.80632514 1.2032504 -0.48936874 0 9 0
0.82624561 1.232977 -0.46326393 0 10 0
0.84462792 1.2604084 -0.43508938 0 11 0
0.86332369 1.2883074 -0.40590864 0 12 0
0.87911969 1.3118793 -0.37429264 0 13 0
0.89524955 1.3359492 -0.34183723 0 14 0
0.91028309 1.3583833 -0.30798814 0 15 0
0.91719073 1.3686912 -0.27078372 0 16 0
0.94840252 1.4152675 -0.23942296 0 17 0
0.95309883 1.4222757 -0.20009807 0 18 0
0.98140103 1.46451 -0.1645529 0 19 0
0.99824321 1.489643 -0.1253608 0 20 0
1.0296618 1.5365279 -0.086108759 0 21 0
1.0414251 1.5540818 -0.043495964 0 22 0
1.0753353 1.6046847 5.5146138e-05 0 23 0
1.1142818 1.6628033 0.046653233 0 24 0
1.1459587 1.7100736 0.09595225 0 25 0
1.182846 1.7651191 0.14866538 0 26 0
1.2095324 1.8049424 0.20292914 0 27 0
1.244998 1.8578664 0.26151019 0 28 0
1.2930428 1.9295621 0.3265622 0 29 0
1.3209685 1.9712344 0.39013085 0 30 0
1.3435384 2.0049148 0.45471984 0 31 0
0.57110631 0.87919539 -0.62175268 0 0 0
0.60434031 0.93035775 -0.62350011 0 1 0
0.63897055 0.9836697 -0.62376171 0 2 0
0.67794019 1.0436618 -0.62509441 0 3 0
0.70118886 1.0794523 -0.60944021 0 4 0
0.73141766 1.1259884 -0.59786761 0 5 0
0.73965275 1.1386659 -0.56711215 0 6 0
0.75489175 1.1621258 -0.54127389 0 7 0
0.77481145 1.1927913 -0.51773822 0 8 0
0.79694825 1.2268701 -0.49428502 0 9 0
0.80888277 1.2452427 -0.46347487 0 10 0
0.82642263 1.2722447 -0.43504736 0 11 0
0.83486766 1.2852454 -0.40113777 0 12 0
0.8588993 1.3222412 -0.37370318 0 13 0
0.8766216 1.349524 -0.34206507 0 14 0
0.8853665 1.3629864 -0.30612719 0 15 0
0.9127844 1.4051951 -0.27539268 0 16 0
0.9277187 1.4281859 -0.23933747 0 17 0
0.94352829 1.4525242 -0.20243293 0 18 0
0.95798355 1.4747775 -0.16414905 0 19 0
0.98836887 1.5215545 -0.12684278 0 20 0
1.0072325 1.5505944 -0.086080305 0 21 0
1.0376385 1.597403 -0.044288225 0 22 0
1.0649297 1.6394168 5.5810182e-05 0 23 0
1.0925933 1.6820039 0.046748377 0 24 0
1.1292692 1.738465 0.096628442 0 25 0
1.1562822 1.7800504 0.14851379 0 26 0
1.1901399 1.8321729 0.20405452 0 27 0
1.2257823 1.887043 0.26312044 0 28 0
1.2664809 1.9496968 0.32686839 0 29 0
1.300247 2.0016782 0.39243248 0 30 0
1.3147107 2.0239449 0.45472133 0 31 0
0.56342822 0.89516485 -0.62727863 0 0 0
0.58916295 0.93605167 -0.62160081 0 1 0
0.62514609 0.9932211 -0.62408042 0 2 0
0.66553056 1.0573832 -0.62754291 0 3 0
0.68397731 1.086691 -0.60793751 0 4 0
0.7148279 1.1357059 -0.59753346 0 5 0
0.72178924 1.1467661 -0.56594294 0 6 0
0.74077171 1.1769251 -0.54317272 0 7 0
0.76230741 1.2111406 -0.52091342 0 8 0
0.77234071 1.2270814 -0.48986614 0 9 0
0.78703988 1.2504351 -0.46116731 0 10 0
0.80921024 1.2856591 -0.4356291 0 11 0
0.82702368 1.3139607 -0.40636384 0 12 0
0.83583331 1.3279573 -0.37189934 0 13 0
0.85291535 1.3550969 -0.34034833 0 14 0
0.86929065 1.3811136 -0.30737248 0 15 0
0.88854492 1.4117045 -0.27414781 0 16 0
0.9105376 1.4466461 -0.24022236 0 17 0
0.92856932 1.4752946 -0.20373316 0 18 0
0.94578552 1.5026474 -0.16572733 0 19 0
0.97261602 1.5452752 -0.1276466 0 20 0
0.98962653 1.5723011 -0.086490124 0 21 0
1.0163112 1.6146972 -0.044359852 0 22 0
1.0520922 1.6715455 5.6385503e-05 0 23 0
1.0720197 1.7032061 0.046906382 0 24 0
1.1080284 1.7604162 0.096957088 0 25 0
1.1421583 1.814641 0.15002044 0 26 0
1.1709634 1.8604062 0.20531124 0 27 0
1.2080895 1.9193913 0.26519266 0 28 0
1.2479066 1.9826519 0.32936504 0 29 0
1.2851782 2.0418684 0.39666477 0 30 0
1.3044554 2.0724959 0.46138719 0 31 0
0.5481171 0.89913136 -0.62449652 0 0 0
0.57663029 0.94590443 -0.62259901 0 1 0
0.60711092 0.99590486 -0.62024301 0 2 0
0.64442414 1.0571134 -0.62184477 0 3 0
0.67252439 1.103209 -0.61173046 0 4 0
0.69783235 1.1447242 -0.59696192 0 5 0
0.71453542 1.172124 -0.57335126 0 6 0
0.72125828 1.1831522 -0.54122669 0 7 0
0.73952579 1.2131182 -0.51715827 0 8 0
0.76318204 1.2519239 -0.49537197 0 9 0
0.7736727 1.2691329 -0.46393147 0 10 0
0.78730118 1.291489 -0.43374172 0 11 0
0.80146354 1.314721 -0.40300986 0 12 0
0.8273114 1.3571217 -0.37671205 0 13 0
0.84044439 1.3786651 -0.34321123 0 14 0
0.8534891 1.4000636 -0.30883944 0 15 0
0.87141788 1.429474 -0.27514815 0 16 0
0.89602733 1.4698434 -0.2419199 0 17 0
0.91052634 1.4936275 -0.20444417 0 18 0
0.92710602 1.5208248 -0.16625154 0 19 0
0.94774324 1.5546782 -0.12728973 0 20 0
0.97553712 1.6002713 -0.087251678 0 21 0
0.99599504 1.6338304 -0.044489279 0 22 0
1.0192107 1.6719134 5.590008e-05 0 23 0
1.0485883 1.7201045 0.046953607 0 24 0
1.0881107 1.7849369 0.097439833 0 25 0
1.1188505 1.8353624 0.15039416 0 26 0
1.1495388 1.8857037 0.20626608 0 27 0
1.1939101 1.9584904 0.26820624 0 28 0
1.2370516 2.0292597 0.33413202 0 29 0
1.275227 2.0918825 0.40279359 0 30 0
1.2799376 2.0996099 0.46329743 0 31 0
0.53271401 0.90268397 -0.62160438 0 0 0
0.56932026 0.96471322 -0.62955087 0 1 0
0.60171026 1.0195981 -0.62957066 0 2 0
0.63156593 1.0701886 -0.62415457 0 3 0
0.65253979 1.1057289 -0.60788625 0 4 0
0.67014867 1.1355671 -0.58712417 0 5 0
0.68817943 1.1661202 -0.56553823 0 6 0
0.7139861 1.2098495 -0.54870808 0 7 0
0.72803605 1.2336572 -0.52141833 0 8 0
0.74473286 1.2619499 -0.49507049 0 9 0
0.75624764 1.2814617 -0.46443385 0 10 0
0.76731104 1.3002087 -0.43293726 0 11 0
0.78781992 1.3349609 -0.40571597 0 12 0
0.80772442 1.3686891 -0.37667516 0 13 0
0.81814802 1.3863519 -0.3421745 0 14 0
0.83605307 1.416692 -0.309836 0 15 0
0.85601252 1.4505134 -0.27681112 0 16 0
0.87650812 1.4852431 -0.24236479 0 17 0
0.89020079 1.5084454 -0.20470734 0 18 0
0.9100365 1.5420569 -0.16713151 0 19 0
0.93285078 1.5807158 -0.12831518 0 20 0
0.95558178 1.6192335 -0.087530844 0 21 0
0.97635782 1.6544385 -0.044665318 0 22 0
0.99834597 1.6916974 5.6078035e-05 0 23 0
1.040015 1.7623056 0.047694337 0 24 0
1.0622866 1.8000449 0.097424559 0 25 0
1.0983524 1.8611583 0.15120421 0 26 0
1.1324946 1.9190121 0.20811507 0 27 0
1.1763636 1.9933484 0.27064627 0 28 0
1.2199435 2.0671945 0.33746848 0 29 0
1.2494689 2.1172252 0.40418836 0 30 0
1.272516 2.1562786 0.47173446 0 31 0
0.52368933 0.91713178 -0.62632746 0 0 0
0.55932462 0.97953945 -0.63393676 0 1 0
0.58461404 1.0238285 -0.62695175 0 2 0
0.60848647 1.065636 -0.61635673 0 3 0
0.63379556 1.1099596 -0.60516292 0 4 0
0.65751415 1.1514978 -0.59043449 0 5 0
0.67639023 1.1845552 -0.56972516 0 6 0
0.68888199 1.206432 -0.54263055 0 7 0
0.70645469 1.2372068 -0.5185917 0 8 0
0.72266346 1.2655931 -0.49239132 0 9 0
0.73834217 1.293051 -0.46475628 0 10 0
0.75722331 1.3261173 -0.43791041 0 11 0
0.76952463 1.3476605 -0.40618646 0 12 0
0.7814697 1.3685797 -0.37352845 0 13 0
0.79318529 1.3890972 -0.34001508 0 14 0
0.82290941 1.4411528 -0.31257761 0 15 0
0.83270204 1.4583025 -0.27599475 0 16 0
0.84300333 1.476343 -0.23891899 0 17 0
0.87330556 1.5294111 -0.20583512 0 18 0
0.8926453 1.5632805 -0.16802977 0 19 0
0.91154224 1.5963745 -0.12851401 0 20 0
0.94007367 1.6463413 -0.088259794 0 21 0
0.96110302 1.6831698 -0.045064975 0 22 0
0.98426187 1.7237276 5.6666991e-05 0 23 0
1.0221989 1.7901665 0.048047457 0 24 0
1.0520293 1.8424079 0.098892264 0 25 0
1.0772579 1.8865905 0.15200211 0 26 0
1.111751 1.946998 0.2094029 0 27 0
1.1543545 2.0216088 0.27221209 0 28 0
1.2123568 2.123188 0.3437413 0 29 0
1.2260736 2.1472101 0.40652072 0 30 0
1.2493933 2.1880498 0.47472411 0 31 0
0.51596898 0.93441957 -0.63302523 0 0 0
0.53968245 0.97736466 -0.62746572 0 1 0
0.56895721 1.0303812 -0.62591332 0 2 0
0.59776181 1.0825464 -0.62112516 0 3 0
0.61764073 1.1185471 -0.60496294 0 4 0
0.63915461 1.1575086 -0.58876532 0 5 0
0.66119826 1.1974297 -0.57130688 0 6 0
0.6763944 1.22495 -0.54654902 0 7 0
0.69689727 1.2620806 -0.5247829 0 8 0
0.7151525 1.2951409 -0.49985346 0 9 0
0.72358376 1.3104098 -0.46722504 0 10 0
0.73299468 1.327453 -0.43484238 0 11 0
0.75016248 1.3585439 -0.40618882 0 12 0
0.76046544 1.3772025 -0.37287286 0 13 0
0.7781769 1.409278 -0.34219337 0 14 0
0.79177028 1.4338955 -0.30851388 0 15 0
0.82096416 1.4867656 -0.27912909 0 16 0
0.83565575 1.5133722 -0.2429509 0 17 0
0.85631859 1.5507925 -0.20704193 0 18 0
0.8669548 1.5700547 -0.16740695 0 19 0
0.89481044 1.6205013 -0.12941197 0 20 0
0.91661018 1.6599805 -0.088278599 0 21 0
0.9435305 1.7087332 -0.045383174 0 22 0
0.96781719 1.7527164 5.7158726e-05 0 23 0
1.0006433 1.8121644 0.048248518 0 24 0
1.0256732 1.8574935 0.098903842 0 25 0
1.0607229 1.9209687 0.15353297 0 26 0
1.0961272 1.9850856 0.21179019 0 27 0
1.1425501 2.0691576 0.2763842 0 28 0
1.1834306 2.1431921 0.34420228 0 29 0
1.2123188 2.1955087 0.41233736 0 30 0
1.2455717 2.2557297 0.48549029 0 31 0
0.49808344 0.93335223 -0.62740815 0 0 0
0.52214342 0.97843784 -0.6232928 0 1 0
0.55377525 1.0377123 -0.62548763 0 2 0
0.57787782 1.0828779 -0.6165064 0 3 0
0.59504855 1.1150539 -0.59840584 0 4 0
0.61938322 1.1606543 -0.58579594 0 5 0
0.64319354 1.2052722 -0.57059777 0 6 0
0.66633981 1.2486458 -0.55280948 0 7 0
0.66831195 1.2523412 -0.51670271 0 8 0
0.69244015 1.2975547 -0.49690899 0 9 0
0.7032941 1.3178939 -0.4662565 0 10 0
0.71723235 1.3440125 -0.43685922 0 11 0
0.73760706 1.3821924 -0.41006085 0 12 0
0.74445385 1.3950225 -0.37477416 0 13 0
0.76365668 1.4310066 -0.34477997 0 14 0
0.78010595 1.4618305 -0.31208989 0 15 0
0.79874158 1.4967517 -0.27882892 0 16 0
0.816329 1.5297085 -0.24367273 0 17 0
0.83312893 1.5611897 -0.20681678 0 18 0
0.85565025 1.603392 -0.16963829 0 19 0
0.87728041 1.6439246 -0.1302664 0 20 0
0.89743024 1.6816831 -0.088740535 0 21 0
0.93110269 1.7447815 -0.045981921 0 22 0
0.95112628 1.7823035 5.7673726e-05 0 23 0
0.9829849 1.8420029 0.048663367 0 24 0
1.0083557 1.889545 0.09983173 0 25 0
1.0322022 1.9342307 0.15339637 0 26 0
1.0737991 2.0121784 0.21301912 0 27 0
1.1302601 2.1179798 0.28071585 0 28 0
1.1739538 2.199857 0.35056826 0 29 0
1.1973981 2.243789 0.41814315 0 30 0
1.2283746 2.3018355 0.49157891 0 31 0
0.47840911 0.92822921 -0.61929786 0 0 0
0.51524276 0.99969536 -0.63207167 0 1 0
0.53216249 1.0325238 -0.61770564 0 2 0
0.56625307 1.0986677 -0.62081796 0 3 0
0.58796585 1.1407957 -0.60764182 0 4 0
0.60243195 1.1688634 -0.58552712 0 5 0
0.62968045 1.2217321 -0.57406455 0 6 0
0.64002049 1.2417943 -0.54566455 0 7 0
0.65755028 1.2758063 -0.52244741 0 8 0
0.67335951 1.3064801 -0.49658519 0 9 0
0.68379021 1.3267181 -0.46586806 0 10 0
0.70257568 1.3631666 -0.43977129 0 11 0
0.71117669 1.3798546 -0.40630567 0 12 0
0.72803962 1.4125726 -0.3766509 0 13 0
0.74389482 1.4433357 -0.34514973 0 14 0
0.76215875 1.478772 -0.31334567 0 15 0
0.78304344 1.5192933 -0.28091148 0 16 0
0.79588306 1.5442053 -0.24414232 0 17 0
0.81538129 1.5820366 -0.20801106 0 18 0
0.83891433 1.6276964 -0.17092177 0 19 0
0.86021769 1.6690301 -0.13126667 0 20 0
0.8779183 1.7033734 -0.08921288 0 21 0
0.91092801 1.7674203 -0.046230193 0 22 0
0.94311279 1.8298666 5.8769983e-05 0 23 0
0.95711178 1.8570279 0.048693396 0 24 0
0.98212087 1.9055517 0.099924468 0 25 0
1.0179011 1.9749739 0.15545617 0 26 0
1.0683305 2.0728192 0.2177977 0 27 0
1.1096612 2.1530108 0.2832247 0 28 0
1.1555846 2.2421134 0.35462999 0 29 0
1.1838679 2.2969897 0.42485607 0 30 0
1.2268807 2.3804448 0.5045647 0 31 0
0.46667087 0.93818885 -0.62142253 0 0 0
0.49705213 0.99926692 -0.62723827 0 1 0
0.52510422 1.0556625 -0.62698764 0 2 0
0.55121052 1.1081462 -0.62165201 0 3 0
0.5645386 1.1349407 -0.60015768 0 4 0
0.58530378 1.1766869 -0.58518952 0 5 0
0.60803962 1.2223947 -0.57022804 0 6 0
0.62232631 1.2511164 -0.54579073 0 7 0
0.63435769 1.2753042 -0.51847047 0 8 0
0.65281165 1.3124037 -0.4952344 0 9 0
0.66692531 1.3407776 -0.46740505 0 10 0
0.68173188 1.3705446 -0.43895856 0 11 0
0.69261551 1.3924248 -0.40704623 0 12 0
0.70735639 1.4220598 -0.37644231 0 13 0
0.73227984 1.4721656 -0.34950164 0 14 0
0.74449337 1.4967195 -0.31485838 0 15 0
0.76386869 1.5356714 -0.28188926 0 16 0
0.7862187 1.5806035 -0.24809234 0 17 0
0.79902035 1.6063397 -0.20968129 0 18 0
0.82372791 1.6560115 -0.17263931 0 19 0
0.84024668 1.6892205 -0.13189523 0 20 0
0.86490089 1.7387851 -0.090409897 0 21 0
0.89086455 1.790982 -0.046508193 0 22 0
0.91295898 1.8354005 5.852203e-05 0 23 0
0.94100326 1.8917804 0.049246427 0 24 0
0.96798569 1.9460254 0.10130993 0 25 0
1.0054548 2.0213528 0.15795781 0 26 0
1.0423619 2.0955503 0.21859606 0 27 0
1.1091535 2.2298274 0.29121149 0 28 0
1.1345761 2.2809365 0.35816529 0 29 0
1.1671119 2.3463461 0.43085113 0 30 0
1.2210478 2.454778 0.51656306 0 31 0
0.45647222 0.95160222 -0.62591529 0 0 0
0.47950396 0.99961621 -0.62308556 0 1 0
0.51237124 1.0681343 -0.62997472 0 2 0
0.54009736 1.1259345 -0.62722993 0 3 0
0.55342954 1.1537279 -0.60584134 0 4 0
0.57829487 1.2055644 -0.59537333 0 5 0
0.59691167 1.2443746 -0.5764367 0 6 0
0.61110264 1.2739584 -0.55188304 0 7 0
0.62147415 1.2955798 -0.52304345 0 8 0
0.63587976 1.325611 -0.49673274 0 9 0
0.6458829 1.3464644 -0.46611696 0 10 0
0.66204655 1.3801606 -0.43895838 0 11 0
0.6792056 1.4159318 -0.41103393 0 12 0
0.68663812 1.4314263 -0.37628159 0 13 0
0.71177781 1.4838346 -0.34981745 0 14 0
0.72727561 1.5161428 -0.31672207 0 15 0
0.75198877 1.567662 -0.28575647 0 16 0
0.76244438 1.5894588 -0.24774395 0 17 0
0.77856684 1.623069 -0.21038881 0 18 0
0.79882216 1.665295 -0.17239748 0 19 0
0.82775426 1.7256094 -0.13379768 0 20 0
0.84600085 1.7636479 -0.091063701 0 21 0
0.86321008 1.7995237 -0.046404403 0 22 0
0.8972165 1.8704165 5.9222977e-05 0 23 0
0.92427593 1.9268271 0.049809266 0 24 0
0.94842595 1.9771724 0.10221424 0 25 0
0.99314952 2.0704069 0.16066381 0 26 0
1.0398546 2.1677728 0.22455429 0 27 0
1.0883301 2.2688291 0.29424047 0 28 0
1.1222157 2.3394697 0.36479688 0 29 0
1.1677452 2.4343846 0.44390264 0 30 0
1.2211713 2.5457611 0.53197616 0 31 0
0.44286758 0.95817065 -0.62600213 0 0 0
0.46394321 1.0037692 -0.62147123 0 1 0
0.49335662 1.0674068 -0.62531674 0 2 0
0.52107137 1.1273693 -0.62381047 0 3 0
0.53604746 1.159771 -0.60492361 0 4 0
0.55401725 1.1986498 -0.58798206 0 5 0
0.58600849 1.2678647 -0.58337283 0 6 0
0.59181499 1.2804273 -0.55095935 0 7 0
0.61102623 1.321992 -0.53012133 0 8 0
0.61762619 1.3362714 -0.49736387 0 9 0
0.6309579 1.3651154 -0.46939903 0 10 0
0.64651972 1.3987844 -0.44189319 0 11 0
0.66124398 1.4306413 -0.41251418 0 12 0
0.67429215 1.4588716 -0.38092008 0 13 0
0.68874198 1.4901347 -0.34894285 0 14 0
0.71208119 1.5406306 -0.31967562 0 15 0
0.73357767 1.5871396 -0.28736344 0 16 0
0.74123007 1.6036959 -0.24828394 0 17 0
0.75700104 1.6378174 -0.21087444 0 18 0
0.7766118 1.6802465 -0.17277683 0 19 0
0.7981081 1.726755 -0.13298713 0 20 0
0.83217835 1.8004681 -0.09234038 0 21 0
0.84836316 1.8354847 -0.047013786 0 22 0
0.87583494 1.8949217 5.9595845e-05 0 23 0
0.90647328 1.9612097 0.050357506 0 24 0
0.93074137 2.013715 0.10340409 0 25 0
0.97674876 2.1132548 0.16288723 0 26 0
1.0155007 2.1970968 0.22606307 0 27 0
1.0676318 2.3098857 0.29755273 0 28 0
1.1241946 2.4322629 0.37671855 0 29 0
1.1709614 2.5334456 0.45886287 0 30 0
1.7904309 3.8737051 0.80403304 0 31 0
0.42824751 0.96247494 -0.62474549 0 0 0
0.4538728 1.0200671 -0.6274755 0 1 0
0.48299015 1.0855075 -0.63180596 0 2 0
0.50413346 1.1330266 -0.62288427 0 3 0
0.52225053 1.1737443 -0.60825068 0 4 0
0.54632288 1.2278463 -0.59840685 0 5 0
0.55449599 1.2462151 -0.56970108 0 6 0
0.57511985 1.2925668 -0.55258405 0 7 0
0.59360325 1.3341076 -0.5315181 0 8 0
0.60048312 1.3495699 -0.4990634 0 9 0
0.61206448 1.3755988 -0.4699432 0 10 0
0.6247443 1.4040962 -0.44070116 0 11 0
0.64128059 1.4412611 -0.41288736 0 12 0
0.6548872 1.4718417 -0.38181999 0 13 0
0.67277402 1.5120419 -0.35178179 0 14 0
0.69145745 1.5540323 -0.32037002 0 15 0
0.71244329 1.6011975 -0.28803289 0 16 0
0.72399008 1.6271486 -0.25028488 0 17 0
0.74277329 1.6693634 -0.21354535 0 18 0
0.76467818 1.718594 -0.17557658 0 19 0
0.77851039 1.7496816 -0.13388091 0 20 0
0.81277037 1.8266799 -0.093078524 0 21 0
0.83326769 1.8727471 -0.047657836 0 22 0
0.85873723 1.9299892 6.0305978e-05 0 23 0
0.88298315 1.9844813 0.050625347 0 24 0
0.91987294 2.0673902 0.10547339 0 25 0
0.95522261 2.1468375 0.16440505 0 26 0
1.0080509 2.2655678 0.23159985 0 27 0
1.0553015 2.3717625 0.30354664 0 28 0
1.1151491 2.506268 0.38566905 0 29 0
1.2231398 2.7489743 0.49467826 0 30 0
1.6908826 3.8002141 0.78367531 0 31 0
0.41597828 0.97212672 -0.62708145 0 0 0
0.43786272 1.02327 -0.62552631 0 1 0
0.46591243 1.0888212 -0.62978858 0 2 0
0.48307094 1.12892 -0.61676222 0 3 0
0.51039064 1.1927652 -0.61425889 0 4 0
0.52550375 1.228084 -0.59479594 0 5 0
0.54839021 1.2815688 -0.58221495 0 6 0
0.5646376 1.3195384 -0.56060219 0 7 0
0.5752368 1.3443083 -0.5322473 0 8 0
0.58837217 1.3750052 -0.5053032 0 9 0
0.60057521 1.4035234 -0.4764975 0 10 0
0.61300486 1.4325709 -0.44683874 0 11 0
0.61956847 1.44791 -0.41220936 0 12 0
0.63887084 1.4930189 -0.38490206 0 13 0
0.65362632 1.5275019 -0.35316584 0 14 0
0.66969234 1.5650476 -0.32063192 0 15 0
0.68869728 1.6094615 -0.28771675 0 16 0
0.70784283 1.654204 -0.25286216 0 17 0
0.72409725 1.6921899 -0.21511748 0 18 0
0.74794537 1.7479222 -0.17746094 0 19 0
0.76359093 1.7844855 -0.13569382 0 20 0
0.7872929 1.8398761 -0.093167186 0 21 0
0.81583661 1.9065816 -0.048216756 0 22 0
0.83950227 1.9618876 6.0920996e-05 0 23 0
0.87035877 2.033998 0.051565461 0 24 0
0.90300065 2.110281 0.10699122 0 25 0
0.94276571 2.2032106 0.16767153 0 26 0
1.000967 2.3392251 0.23764056 0 27 0
1.0713309 2.5036628 0.31843257 0 28 0
1.1299092 2.6405582 0.4038038 0 29 0
1.5052004 3.5176008 0.62905127 0 30 0
1.6144726 3.7729664 0.77321166 0 31 0
0.40350088 0.98157674 -0.62938732 0 0 0
0.42414781 1.0318036 -0.62696749 0 1 0
0.44537023 1.0834303 -0.62291938 0 2 0
0.47827846 1.1634845 -0.63184106 0 3 0
0.49246112 1.197986 -0.61325461 0 4 0
0.51319802 1.2484316 -0.6010316 0 5 0
0.52725375 1.2826244 -0.57920665 0 6 0
0.54491037 1.3255767 -0.55979657 0 7 0
0.55522901 1.3506783 -0.53156841 0 8 0
0.5698517 1.3862503 -0.50638628 0 9 0
0.57466584 1.3979614 -0.47176832 0 10 0
0.58825922 1.4310294 -0.44368613 0 11 0
0.60616469 1.4745872 -0.41729134 0 12 0
0.62084866 1.510308 -0.38702863 0 13 0
0.63615954 1.547554 -0.35566029 0 14 0
0.65464705 1.5925277 -0.32430884 0 15 0
0.67536116 1.642918 -0.29193965 0 16 0
0.69279933 1.685339 -0.25607941 0 17 0
0.70573127 1.7167978 -0.21693937 0 18 0
0.72792256 1.7707815 -0.17870565 0 19 0
0.7441901 1.8103547 -0.13683693 0 20 0
0.77269572 1.8796989 -0.094613977 0 21 0
0.78883499 1.9189602 -0.048239321 0 22 0
0.81787086 1.9895942 6.1411542e-05 0 23 0
0.85069472 2.0694432 0.052150022 0 24 0
0.88924062 2.1632121 0.10901834 0 25 0
0.92634398 2.2534716 0.17047003 0 26 0
0.99071616 2.4100666 0.24337178 0 27 0
1.0712394 2.6059515 0.32945839 0 28 0
1.1506839 2.799212 0.42550343 0 29 0
1.431033 3.4812036 0.61881602 0 30 0
1.5399065 3.7460551 0.7631014 0 31 0
0.38654187 0.97997659 -0.62474966 0 0 0
0.4059954 1.029296 -0.62184894 0 1 0
0.4340311 1.1003733 -0.62902445 0 2 0
0.45389259 1.1507269 -0.62132114 0 3 0
0.48013428 1.2172559 -0.61953753 0 4 0
0.49700344 1.2600232 -0.60312563 0 5 0
0.51079446 1.2949868 -0.58142811 0 6 0
0.53071398 1.3454876 -0.5649392 0 7 0
0.53729576 1.3621739 -0.53301126 0 8 0
0.55221093 1.3999876 -0.50846505 0 9 0
0.55991834 1.4195278 -0.47629291 0 10 0
0.56855023 1.4414116 -0.44433647 0 11 0
0.59100759 1.4983464 -0.42157787 0 12 0
0.60962766 1.5455528 -0.39378396 0 13 0
0.61989605 1.5715857 -0.35910729 0 14 0
0.63454503 1.6087242 -0.32572421 0 15 0
0.65047967 1.6491225 -0.29135785 0 16 0
0.66749185 1.6922524 -0.25565198 0 17 0
0.69066137 1.7509928 -0.21998861 0 18 0
0.70765764 1.7940823 -0.18001649 0 19 0
0.72824264 1.8462703 -0.13874954 0 20 0
0.75408804 1.9117947 -0.095676415 0 21 0
0.77541745 1.9658698 -0.049134504 0 22 0
0.79832911 2.0239563 6.2113104e-05 0 23 0
0.8320846 2.1095345 0.05285478 0 24 0
0.86946827 2.2043114 0.11045109 0 25 0
0.91241813 2.3131995 0.17398253 0 26 0
0.98337024 2.4930801 0.25030762 0 27 0
1.0787842 2.7349775 0.3437832 0 28 0
1.1435734 2.8992338 0.43817452 0 29 0
1.355762 3.4371829 0.60747916 0 30 0
1.4658968 3.7164011 0.75270933 0 31 0
0.3736538 0.98852211 -0.62672377 0 0 0
0.39240316 1.0381246 -0.62372553 0 1 0
0.41732362 1.104053 -0.62764907 0 2 0
0.44019461 1.1645596 -0.62532389 0 3 0
0.4666445 1.2345343 -0.62486804 0 4 0
0.47813526 1.2649337 -0.60213852 0 5 0
0.49423918 1.3075374 -0.58382714 0 6 0
0.51417768 1.360286 -0.56800437 0 7 0
0.52393645 1.3861033 -0.53938502 0 8 0
0.53486925 1.4150267 -0.51109427 0 9 0
0.54867202 1.4515427 -0.4843502 0 10 0
0.55776912 1.4756095 -0.45237106 0 11 0
0.57732856 1.5273551 -0.42737097 0 12 0
0.58747423 1.554196 -0.39380336 0 13 0
0.60393435 1.5977423 -0.36307165 0 14 0
0.61585331 1.6292746 -0.32806671 0 15 0
0.64193398 1.6982723 -0.29838747 0 16 0
0.65576094 1.7348524 -0.26064295 0 17 0
0.67252314 1.7791978 -0.22230004 0 18 0
0.69054961 1.8268877 -0.18229772 0 19 0
0.70970583 1.8775667 -0.14032373 0 20 0
0.7313332 1.934783 -0.096293144 0 21 0
0.75717652 2.0031531 -0.049790375 0 22 0
0.77797002 2.0581634 6.2814717e-05 0 23 0
0.81805342 2.1642063 0.053925686 0 24 0
0.85505176 2.2620873 0.11272129 0 25 0
0.90362316 2.3905859 0.17881188 0 26 0
0.9820652 2.5981088 0.2594147 0 27 0
1.0518802 2.7828083 0.34786728 0 28 0
1.132471 2.9960153 0.45030564 0 29 0
1.2986424 3.4356313 0.60385787 0 30 0
1.4014729 3.7076755 0.74680269 0 31 0
0.35923791 0.99313301 -0.62632293 0 0 0
0.37812558 1.045349 -0.62475032 0 1 0
0.3987107 1.1022577 -0.62332022 0 2 0
0.42182308 1.1661532 -0.62287378 0 3 0
0.44724086 1.2364221 -0.62251961 0 4 0
0.46187884 1.2768896 -0.60462081 0 5 0
0.47993332 1.3268021 -0.58930135 0 6 0
0.49103549 1.3574947 -0.56384629 0 7 0
0.50541997 1.3972614 -0.54085648 0 8 0
0.51665205 1.428313 -0.51316959 0 9 0
0.5271107 1.4572265 -0.48367971 0 10 0
0.54325312 1.5018532 -0.45798576 0 11 0
0.55933058 1.5463003 -0.43038782 0 12 0
0.57514256 1.5900133 -0.40075183 0 13 0
0.58480924 1.6167375 -0.36544853 0 14 0
0.59713119 1.6508021 -0.33064654 0 15 0
0.62432438 1.7259792 -0.30165458 0 16 0
0.63689125 1.760721 -0.26313287 0 17 0
0.65369904 1.8071871 -0.22460505 0 18 0
0.66872215 1.8487194 -0.18350229 0 19 0
0.69359249 1.9174746 -0.14254975 0 20 0
0.719024 1.9877816 -0.098408557 0 21 0
0.74005961 2.0459356 -0.050585303 0 22 0
0.76863271 2.1249275 6.4509964e-05 0 23 0
0.79995996 2.2115335 0.054814026 0 24 0
0.83802795 2.3167746 0.11483689 0 25 0
0.89086169 2.4628363 0.18324354 0 26 0
0.96862572 2.6778193 0.26596203 0 27 0
1.0299752 2.8474231 0.35406536 0 28 0
1.1026288 3.0482781 0.455742 0 29 0
1.2466977 3.4465647 0.60258138 0 30 0
1.3335925 3.6867902 0.73867553 0 31 0
0.33991209 0.98348796 -0.6171087 0 0 0
0.36414006 1.0535883 -0.6264953 0 1 0
0.387683 1.1217065 -0.63111573 0 2 0
0.4045268 1.1704416 -0.62200791 0 3 0
0.42766264 1.2373819 -0.61985743 0 4 0
0.44602343 1.2905064 -0.60798323 0 5 0
0.4635576 1.341239 -0.59270579 0 6 0
0.47703427 1.3802319 -0.57039583 0 7 0
0.49320164 1.4270098 -0.54958278 0 8 0
0.5037064 1.4574039 -0.52097774 0 9 0
0.50921082 1.4733301 -0.48655573 0 10 0
0.53087407 1.5360098 -0.4660368 0 11 0
0.54294407 1.5709326 -0.43503618 0 12 0
0.55950058 1.6188365 -0.40595645 0 13 0
0.56911767 1.6466622 -0.37033346 0 14 0
0.58529979 1.6934829 -0.33748272 0 15 0
0.59992605 1.7358019 -0.30183965 0 16 0
0.61253315 1.7722789 -0.26352289 0 17 0
0.6316973 1.8277276 -0.22601102 0 18 0
0.64903706 1.8778979 -0.18545741 0 19 0
0.67274392 1.9464903 -0.14397624 0 20 0
0.69319117 2.0056515 -0.09879192 0 21 0
0.7167266 2.0737481 -0.051014088 0 22 0
0.75154471 2.1744893 6.5681292e-05 0 23 0
0.77980566 2.2562585 0.055640209 0 24 0
0.82419091 2.384681 0.11760606 0 25 0
0.87952656 2.5447869 0.18838498 0 26 0
0.94695628 2.7398853 0.27075252 0 27 0
0.99996108 2.8932474 0.35794699 0 28 0
1.0541682 3.0500879 0.4537102 0 29 0
1.1893185 3.4411266 0.59859306 0 30 0
1.2730002 3.6832478 0.73423988 0 31 0
0.33014166 1.0014168 -0.62532932 0 0 0
0.34963453 1.0605444 -0.62759155 0 1 0
0.37041783 1.1235863 -0.62912583 0 2 0
0.39264089 1.1909953 -0.62987959 0 3 0
0.41263244 1.2516356 -0.6239751 0 4 0
0.4262107 1.2928225 -0.60613829 0 5 0
0.44075629 1.3369435 -0.58795941 0 6 0
0.45510361 1.3804631 -0.56774122 0 7 0
0.47047314 1.4270835 -0.54696155 0 8 0
0.4795377 1.4545789 -0.51746124 0 9 0
0.49432519 1.4994338 -0.49278912 0 10 0
0.50802743 1.5409967 -0.46529594 0 11 0
0.51947761 1.5757283 -0.4342607 0 12 0
0.53872854 1.6341221 -0.40781415 0 13 0
0.54926169 1.6660724 -0.37289247 0 14 0
0.57196903 1.7349503 -0.34407973 0 15 0
0.58512777 1.7748646 -0.30714443 0 16 0
0.59879005 1.8163065 -0.26876751 0 17 0
0.61562949 1.8673854 -0.22980179 0 18 0
0.63355494 1.9217584 -0.18887407 0 19 0
0.65171582 1.9768459 -0.14551665 0 20 0
0.67495728 2.047344 -0.1003594 0 21 0
0.69507349 2.1083624 -0.051615566 0 22 0
0.72823739 2.2089584 6.6400789e-05 0 23 0
0.76583272 2.3229959 0.05700982 0 24 0
0.81008166 2.457216 0.1205991 0 25 0
0.86315787 2.6182117 0.19288611 0 26 0
0.92676044 2.8111372 0.27645436 0 27 0
0.96621639 2.9308186 0.36084726 0 28 0
1.0189629 3.0908141 0.45755196 0 29 0
1.1334314 3.438031 0.59517151 0 30 0
1.2057891 3.6575131 0.72559488 0 31 0
0.3159658 1.0066453 -0.62570608 0 0 0
0.33213997 1.058175 -0.62331229 0 1 0
0.35246727 1.1229365 -0.62587303 0 2 0
0.3741183 1.191915 -0.62746966 0 3 0
0.39465231 1.2573351 -0.62393641 0 4 0
0.41568041 1.3243291 -0.61805725 0 5 0
0.4266209 1.3591847 -0.59499425 0 6 0
0.43930554 1.3995972 -0.57296574 0 7 0
0.45516521 1.450125 -0.55323905 0 8 0
0.46359748 1.4769895 -0.52301955 0 9 0
0.47918248 1.5266423 -0.49942595 0 10 0
0.48892671 1.5576868 -0.46817437 0 11 0
0.50175738 1.5985644 -0.43852994 0 12 0
0.51710379 1.647457 -0.40925297 0 13 0
0.53539193 1.7057217 -0.38001251 0 14 0
0.54872602 1.7482032 -0.34511507 0 15 0
0.56663406 1.8052571 -0.31096855 0 16 0
0.58170372 1.853268 -0.27297685 0 17 0
0.59141189 1.8841976 -0.23080535 0 18 0
0.62121016 1.9791327 -0.19361919 0 19 0
0.63299966 2.0166931 -0.14776777 0 20 0
0.65384465 2.0831039 -0.10164316 0 21 0
0.67631447 2.1546912 -0.052507393 0 22 0
0.70654166 2.250993 6.7353445e-05 0 23 0
0.7433852 2.3683741 0.057856407 0 24 0
0.78828603 2.5114248 0.12269331 0 25 0
0.83758169 2.6684775 0.19568598 0 26 0
0.89229429 2.842788 0.27828249 0 27 0
0.93200314 2.9692976 0.36390513 0 28 0
0.98124892 3.1261914 0.46066269 0 29 0
1.0811356 3.4444237 0.59353846 0 30 0
1.1495937 3.6625261 0.72325099 0 31 0
0.30123278 1.01008 -0.62509692 0 0 0
0.31938016 1.0709308 -0.62806892 0 1 0
0.33676437 1.1292229 -0.62662601 0 2 0
0.35574973 1.1928836 -0.62523484 0 3 0
0.38171861 1.2799612 -0.63238829 0 4 0
0.3921077 1.3147974 -0.61092699 0 5 0
0.40745503 1.3662595 -0.59547722 0 6 0
0.41721389 1.3989824 -0.57021093 0 7 0
0.43313983 1.4523846 -0.55167937 0 8 0
0.44892874 1.5053272 -0.53072447 0 9 0
0.4580723 1.535987 -0.50028676 0 10 0
0.47236851 1.5839243 -0.47397959 0 11 0
0.48694015 1.6327853 -0.44596002 0 12 0
0.49980569 1.6759255 -0.41450536 0 13 0
0.51532179 1.7279534 -0.3832829 0 14 0
0.53090739 1.7802143 -0.3498984 0 15 0
0.54837728 1.8387935 -0.31536105 0 16 0
0.56111914 1.8815188 -0.27592677 0 17 0
0.57700527 1.9347875 -0.23596653 0 18 0
0.59469175 1.9940931 -0.19423014 0 19 0
0.6112048 2.049464 -0.14951262 0 20 0
0.63337487 2.1238036 -0.10317613 0 21 0
0.66081315 2.2158082 -0.053760745 0 22 0
0.69073319 2.3161349 6.8999703e-05 0 23 0
0.72477615 2.4302859 0.05910936 0 24 0
0.77320814 2.5926862 0.12610964 0 25 0
0.81089711 2.7190628 0.19852403 0 26 0
0.85446209 2.8651431 0.27924499 0 27 0
0.89852709 3.0128996 0.36763498 0 28 0
0.9433462 3.1631851 0.46407673 0 29 0
1.0311804 3.4577067 0.59322327 0 30 0
1.0858501 3.6410227 0.7158621 0 31 0
0.28755844 1.0171627 -0.62686872 0 0 0
0.30255514 1.0702095 -0.62504214 0 1 0
0.31966057 1.1307155 -0.62485135 0 2 0
0.33803475 1.1957093 -0.624116 0 3 0
0.36054552 1.2753353 -0.62748873 0 4 0
0.37160885 1.314469 -0.60824054 0 5 0
0.38603383 1.3654935 -0.59267443 0 6 0
0.39542314 1.3987058 -0.56773311 0 7 0
0.4105888 1.4523504 -0.54937774 0 8 0
0.43099076 1.5245169 -0.53526032 0 9 0
0.44252649 1.5653216 -0.50772625 0 10 0
0.4531557 1.6029196 -0.47767392 0 11 0
0.46808153 1.6557158 -0.45034692 0 12 0
0.48345497 1.7100954 -0.42120191 0 13 0
0.49513644 1.7514155 -0.38687545 0 14 0
0.51221037 1.81181 -0.35463119 0 15 0
0.52353936 1.8518834 -0.31628844 0 16 0
0.54073232 1.9126989 -0.27933571 0 17 0
0.55465978 1.9619638 -0.23828828 0 18 0
0.57262123 2.0254974 -0.19647056 0 19 0
0.59512532 2.1050999 -0.15293428 0 20 0
0.61351144 2.170136 -0.10498963 0 21 0
0.63927919 2.2612827 -0.054636456 0 22 0
0.67061532 2.3721261 7.0374568e-05 0 23 0
0.70628238 2.4982889 0.060511246 0 24 0
0.74149603 2.622848 0.12704749 0 25 0
0.78246516 2.7677655 0.20124158 0 26 0
