# .PCD v0.7 - Point Cloud Data file format
VERSION 0.7
FIELDS x y z intensity ring time
SIZE 4 4 4 4 2 4
TYPE F F F F U F
COUNT 1 1 1 1 1 1
WIDTH 1227
HEIGHT 1
VIEWPOINT 0 0 0 1 0 0 0
POINTS 1227
DATA ascii
0.91195935 0.73722947 -0.62360024 0 2 0
0.96170008 0.77743995 -0.62113619 0 3 0
1.0106361 0.81699985 -0.61529559 0 4 0
1.0626497 0.85904777 -0.60844684 0 5 0
1.0801864 0.8732245 -0.58013988 0 6 0
1.0967175 0.88658816 -0.55083317 0 7 0
1.1272316 0.91125584 -0.52761883 0 8 0
1.1708556 0.94652164 -0.50867873 0 9 0
1.1695675 0.94548029 -0.46941701 0 10 0
1.2099349 0.97811341 -0.44615862 0 11 0
1.2260121 0.99111015 -0.41263264 0 12 0
1.2539457 1.0136918 -0.38216966 0 13 0
1.2868537 1.0402946 -0.35173747 0 14 0
1.2929529 1.0452253 -0.31315145 0 15 0
1.3223175 1.0689636 -0.27945563 0 16 0
1.3394907 1.0828464 -0.2420622 0 17 0
1.3690279 1.1067244 -0.20574601 0 18 0
1.4133984 1.1425936 -0.16964373 0 19 0
1.417676 1.1460516 -0.12744318 0 20 0
1.4465506 1.1693939 -0.086596549 0 21 0
1.4811851 1.1973925 -0.044283759 0 22 0
1.5116764 1.2220417 5.5493772e-05 0 23 0
1.5345839 1.2405602 0.045992982 0 24 0
1.5716661 1.2705375 0.094202131 0 25 0
1.6175497 1.3076298 0.14553033 0 26 0
1.6685481 1.348857 0.20039175 0 27 0
1.7214391 1.3916142 0.25883669 0 28 0
1.7712704 1.4318979 0.32022268 0 29 0
1.8142757 1.4666635 0.38356179 0 30 0
1.8427235 1.4896606 0.44644523 0 31 0
0.81627667 0.67942482 -0.62983972 0 0 0
0.85418904 0.71098101 -0.6245985 0 1 0
0.91534442 0.76188344 -0.63330704 0 2 0
0.9614169 0.8002317 -0.62828678 0 3 0
0.99098724 0.82484442 -0.61045843 0 4 0
1.0376893 0.86371672 -0.60117215 0 5 0
1.0688909 0.8896873 -0.58085322 0 6 0
1.095708 0.9120084 -0.55682558 0 7 0
1.1169639 0.92970067 -0.52898735 0 8 0
1.1395383 0.94849032 -0.50091976 0 9 0
1.1573309 0.96329999 -0.46999159 0 10 0
1.1834108 0.98500746 -0.44153157 0 11 0
1.2145165 1.0108982 -0.41359121 0 12 0
1.2399824 1.0320946 -0.38237721 0 13 0
1.2647972 1.0527492 -0.34979159 0 14 0
1.2708713 1.0578048 -0.3114385 0 15 0
1.2985511 1.080844 -0.27767396 0 16 0
1.3257489 1.1034821 -0.24240837 0 17 0
1.3460095 1.1203458 -0.2046757 0 18 0
1.3529022 1.126083 -0.16430041 0 19 0
1.401857 1.1668303 -0.12750943 0 20 0
1.4254504 1.1864682 -0.086341202 0 21 0
1.4373959 1.196411 -0.043482102 0 22 0
1.4686506 1.2224258 5.4551027e-05 0 23 0
1.5173049 1.2629229 0.046012174 0 24 0
1.5510365 1.2909994 0.094063565 0 25 0
1.603698 1.334832 0.14598811 0 26 0
1.6421231 1.3668149 0.19954729 0 27 0
1.692518 1.4087609 0.25749362 0 28 0
1.7477275 1.4547143 0.31969801 0 29 0
1.7880352 1.4882642 0.38247856 0 30 0
1.8187544 1.5138333 0.44584212 0 31 0
0.79689592 0.68283474 -0.62236315 0 0 0
0.85008073 0.72840714 -0.62915367 0 1 0
0.89026839 0.76284266 -0.62344825 0 2 0
0.93690586 0.80280477 -0.61971462 0 3 0
0.97475123 0.83523333 -0.60775912 0 4 0
1.018675 0.87287015 -0.59733337 0 5 0
1.0399907 0.89113498 -0.57202119 0 6 0
1.0701733 0.91699743 -0.5504629 0 7 0
1.1084034 0.94975561 -0.53131688 0 8 0
1.1128076 0.95352948 -0.49511829 0 9 0
1.1354394 0.97292191 -0.46670896 0 10 0
1.1781515 1.0095205 -0.444915 0 11 0
1.2031999 1.0309837 -0.41472027 0 12 0
1.206933 1.0341824 -0.37671185 0 13 0
1.2360973 1.0591725 -0.3460117 0 14 0
1.2635728 1.0827154 -0.31341565 0 15 0
1.2863958 1.1022716 -0.27841994 0 16 0
1.3127462 1.1248504 -0.24294989 0 17 0
1.3283032 1.1381807 -0.2044396 0 18 0
1.3585266 1.1640781 -0.16698982 0 19 0
1.3676888 1.171929 -0.12591444 0 20 0
1.3982689 1.1981322 -0.085724764 0 21 0
1.4294509 1.2248509 -0.043767627 0 22 0
1.4608703 1.2517732 5.4921918e-05 0 23 0
1.4906684 1.2773063 0.045754161 0 24 0
1.533146 1.313704 0.094109312 0 25 0
1.5803928 1.3541883 0.14561616 0 26 0
1.6156936 1.3844364 0.19872329 0 27 0
1.6825159 1.4416943 0.25908482 0 28 0
1.7143136 1.4689407 0.31739941 0 29 0
1.7632043 1.5108336 0.38175377 0 30 0
1.8020219 1.5440952 0.44711241 0 31 0
0.80574399 0.71066552 -0.63715231 0 0 0
0.83333719 0.73500264 -0.62448388 0 1 0
0.88242048 0.77829409 -0.62568963 0 2 0
0.93135911 0.82145792 -0.62375909 0 3 0
0.96859938 0.85430378 -0.61148494 0 4 0
1.0131636 0.8936094 -0.60154021 0 5 0
1.039398 0.91674811 -0.57885319 0 6 0
1.0629267 0.93750042 -0.553581 0 7 0
1.0861238 0.95796025 -0.52715588 0 8 0
1.1120217 0.98080224 -0.50096351 0 9 0
1.1327701 0.99910218 -0.47144154 0 10 0
1.1526798 1.0166626 -0.44074613 0 11 0
1.1717896 1.0335175 -0.40895081 0 12 0
1.1925652 1.0518415 -0.37688792 0 13 0
1.2258775 1.0812229 -0.34744743 0 14 0
1.2357701 1.0899482 -0.31035733 0 15 0
1.260908 1.1121198 -0.27632049 0 16 0
1.2831823 1.1317657 -0.24045192 0 17 0
1.3031269 1.1493568 -0.20307593 0 18 0
1.3284472 1.1716893 -0.16533701 0 19 0
1.3556659 1.1956961 -0.12637025 0 20 0
1.3764192 1.2140005 -0.085441768 0 21 0
1.39999 1.23479 -0.043402288 0 22 0
1.4427562 1.2725097 5.4920049e-05 0 23 0
1.4752984 1.301212 0.045849372 0 24 0
1.5153296 1.3365194 0.094180301 0 25 0
1.5428793 1.3608181 0.14393963 0 26 0
1.5916033 1.4037926 0.19821134 0 27 0
1.6469253 1.4525867 0.25677967 0 28 0
1.6797233 1.4815145 0.31488901 0 29 0
1.7443615 1.5385253 0.38240284 0 30 0
1.7721282 1.5630156 0.44520062 0 31 0
0.78483838 0.71245492 -0.62862051 0 0 0
0.82110262 0.74537456 -0.62324679 0 1 0
0.86375731 0.78409529 -0.6203506 0 2 0
0.91929877 0.83451432 -0.62361783 0 3 0
0.9545722 0.86653465 -0.61039716 0 4 0
1.0024657 0.91001105 -0.60286033 0 5 0
1.020202 0.92611158 -0.57548612 0 6 0
1.0552831 0.95795715 -0.55668426 0 7 0
1.0618016 0.96387446 -0.52199358 0 8 0
1.0943485 0.99341977 -0.49935636 0 9 0
1.1142879 1.0115201 -0.4697271 0 10 0
1.1402249 1.0350651 -0.44160345 0 11 0
1.1586008 1.0517461 -0.40955982 0 12 0
1.1838493 1.0746661 -0.37895584 0 13 0
1.1992449 1.0886418 -0.34428018 0 14 0
1.22205 1.1093436 -0.31086755 0 15 0
1.2432029 1.1285458 -0.27595219 0 16 0
1.2615699 1.1452187 -0.23944914 0 17 0
1.2810385 1.1628919 -0.20220692 0 18 0
1.3141186 1.192921 -0.16566184 0 19 0
1.3334525 1.2104717 -0.12590176 0 20 0
1.3629047 1.2372077 -0.085693344 0 21 0
1.3846409 1.2569393 -0.043479744 0 22 0
1.4052051 1.2756069 5.4180106e-05 0 23 0
1.4504637 1.3166914 0.045658585 0 24 0
1.483233 1.3464384 0.093373679 0 25 0
1.5262457 1.3854843 0.14422317 0 26 0
1.5662583 1.4218066 0.19756919 0 27 0
1.6209244 1.4714309 0.25598329 0 28 0
1.6647038 1.5111728 0.31609589 0 29 0
1.6983012 1.5416715 0.37710428 0 30 0
1.7497734 1.5883967 0.44525063 0 31 0
0.77659446 0.72551388 -0.63027054 0 0 0
0.81051803 0.75720614 -0.62337548 0 1 0
0.85914862 0.80263805 -0.62522769 0 2 0
0.9047544 0.84524411 -0.6218949 0 3 0
0.93474382 0.87326097 -0.60564864 0 4 0
0.98120588 0.91666698 -0.59790438 0 5 0
1.0080454 0.94174117 -0.57617342 0 6 0
1.0299352 0.96219116 -0.55052155 0 7 0
1.057745 0.9881717 -0.5268988 0 8 0
1.0734071 1.0028037 -0.49629945 0 9 0
1.0988108 1.0265365 -0.46934864 0 10 0
1.1174105 1.0439128 -0.43850961 0 11 0
1.1313205 1.0569078 -0.40522254 0 12 0
1.1642405 1.0876625 -0.37762374 0 13 0
1.1841544 1.1062665 -0.34445849 0 14 0
1.190269 1.111979 -0.30680043 0 15 0
1.2241383 1.1436205 -0.27532569 0 16 0
1.2384384 1.15698 -0.23817755 0 17 0
1.2695972 1.1860894 -0.20305993 0 18 0
1.2908131 1.2059097 -0.16488293 0 19 0
1.31159 1.22532 -0.12548065 0 20 0
1.3263338 1.2390941 -0.084500425 0 21 0
1.3622686 1.2726653 -0.043344796 0 22 0
1.3913883 1.2998697 5.4359174e-05 0 23 0
1.4195611 1.3261894 0.045278717 0 24 0
1.4556593 1.3599131 0.092853703 0 25 0
1.4957162 1.3973354 0.14321359 0 26 0
1.5409753 1.4396175 0.19695903 0 27 0
1.59113 1.4864733 0.25461203 0 28 0
1.6422532 1.5342338 0.31597039 0 29 0
1.6716857 1.5617305 0.37611943 0 30 0
1.7231991 1.6098555 0.44430643 0 31 0
0.75946808 0.7301482 -0.62478888 0 0 0
0.80359125 0.77256787 -0.62648869 0 1 0
0.84218353 0.80967027 -0.62125182 0 2 0
0.89967495 0.86494225 -0.626849 0 3 0
0.9201144 0.88459259 -0.6043117 0 4 0
0.95541513 0.91853052 -0.59013963 0 5 0
0.99486732 0.95645964 -0.57640707 0 6 0
1.018525 0.979204 -0.55185777 0 7 0
1.0383571 0.99827045 -0.52430505 0 8 0
1.059956 1.0190355 -0.49677324 0 9 0
1.0807172 1.0389951 -0.46792445 0 10 0
1.1006953 1.0582019 -0.4378491 0 11 0
1.1226557 1.0793147 -0.40761071 0 12 0
1.1435587 1.0994107 -0.37598118 0 13 0
1.1547034 1.1101251 -0.34047878 0 14 0
1.1816199 1.1360024 -0.3087306 0 15 0
1.1952436 1.1491002 -0.27249822 0 16 0
1.2253605 1.1780545 -0.23888084 0 17 0
1.2607175 1.2120464 -0.20439351 0 18 0
1.2687151 1.2197353 -0.16427349 0 19 0
1.2857052 1.2360694 -0.12468412 0 20 0
1.3125147 1.2618439 -0.084762014 0 21 0
1.3526949 1.3004729 -0.043627981 0 22 0
1.3619604 1.3093807 5.3936161e-05 0 23 0
1.397367 1.3434204 0.045179512 0 24 0
1.4419278 1.3862609 0.093233943 0 25 0
1.4757102 1.4187391 0.14322773 0 26 0
1.523185 1.4643811 0.19734399 0 27 0
1.5628504 1.5025152 0.25350219 0 28 0
1.6111648 1.5489645 0.31422254 0 29 0
1.6390384 1.5757619 0.37381035 0 30 0
1.6852903 1.6202283 0.44046652 0 31 0
0.75019288 0.74218196 -0.62583375 0 0 0
0.79828149 0.78975707 -0.63109738 0 1 0
0.83836508 0.82941264 -0.62712824 0 2 0
0.88014477 0.8707462 -0.62186152 0 3 0
0.91426688 0.90450388 -0.60891181 0 4 0
0.94512647 0.93503398 -0.59199065 0 5 0
0.97102672 0.96065766 -0.57050252 0 6 0
0.99869627 0.98803174 -0.54872048 0 7 0
1.0116838 1.0008806 -0.51801741 0 8 0
1.0497876 1.0385774 -0.49892363 0 9 0
1.0673976 1.0559994 -0.4686538 0 10 0
1.0858743 1.0742788 -0.4380253 0 11 0
1.102394 1.0906221 -0.40588039 0 12 0
1.119421 1.1074673 -0.37321866 0 13 0
1.13656 1.1244233 -0.33983979 0 14 0
1.1641377 1.1517065 -0.30843842 0 15 0
1.1948994 1.1821398 -0.27624911 0 16 0
1.2119237 1.1989822 -0.23958245 0 17 0
1.2227262 1.2096694 -0.2010207 0 18 0
1.2568483 1.243427 -0.16502453 0 19 0
1.2703801 1.2568145 -0.1249297 0 20 0
1.3003891 1.2865028 -0.085159406 0 21 0
1.3221805 1.3080617 -0.043243248 0 22 0
1.3512173 1.3367883 5.4262899e-05 0 23 0
1.3765912 1.3618914 0.045133427 0 24 0
1.4127082 1.3976226 0.092628635 0 25 0
1.456038 1.4404898 0.14330488 0 26 0
1.4975176 1.4815264 0.19674578 0 27 0
1.5555696 1.5389585 0.25586802 0 28 0
1.59612 1.5790758 0.31566405 0 29 0
1.6264279 1.6090602 0.37614846 0 30 0
1.6632853 1.645524 0.44082597 0 31 0
0.74079961 0.75417191 -0.6269387 0 0 0
0.77626431 0.79027683 -0.6225701 0 1 0
0.83176255 0.8467769 -0.63119113 0 2 0
0.87435293 0.89013606 -0.6267072 0 3 0
0.90287167 0.9191696 -0.61002237 0 4 0
0.93476045 0.95163399 -0.59396869 0 5 0
0.9661358 0.98357576 -0.57584143 0 6 0
0.98246527 1.0001999 -0.54761237 0 7 0
1.0030338 1.0211397 -0.5210188 0 8 0
1.0154706 1.0338011 -0.48959652 0 9 0
1.0420972 1.0609083 -0.46416512 0 10 0
1.0725093 1.0918694 -0.43889335 0 11 0
1.0817239 1.1012504 -0.40403223 0 12 0
1.1100208 1.1300581 -0.37543893 0 13 0
1.1363934 1.1569067 -0.34470606 0 14 0
1.1492357 1.1699808 -0.30889547 0 15 0
1.1648945 1.1859221 -0.27320862 0 16 0
1.188502 1.2099558 -0.23835151 0 17 0
1.2078348 1.2296377 -0.20144543 0 18 0
1.2286569 1.2508357 -0.16365699 0 19 0
1.2510933 1.273677 -0.12481304 0 20 0
1.267079 1.2899513 -0.084178537 0 21 0
1.291913 1.3152336 -0.042864636 0 22 0
1.325393 1.3493179 5.39959e-05 0 23 0
1.3582406 1.3827585 0.045176059 0 24 0
1.3897704 1.4148575 0.092443034 0 25 0
1.4278485 1.4536228 0.14256361 0 26 0
1.4637202 1.4901421 0.19508772 0 27 0
1.5264183 1.553972 0.25470558 0 28 0
1.5783365 1.6068274 0.31666312 0 29 0
1.6012684 1.6301732 0.37568763 0 30 0
1.6404507 1.6700628 0.44106433 0 31 0
0.72964537 0.76439881 -0.62669426 0 0 0
0.76272154 0.79905039 -0.62081778 0 1 0
0.81146801 0.8501187 -0.6249603 0 2 0
0.84791875 0.8883056 -0.61681032 0 3 0
0.8896386 0.93201256 -0.61003238 0 4 0
0.91625667 0.95989853 -0.59088081 0 5 0
0.9547171 1.0001909 -0.57750922 0 6 0
0.97093028 1.0171763 -0.54924184 0 7 0
0.986256 1.033232 -0.51993257 0 8 0
1.0065309 1.0544726 -0.49251285 0 9 0
1.0341662 1.0834241 -0.46749192 0 10 0
1.0482212 1.0981486 -0.43534184 0 11 0
1.0628488 1.1134729 -0.40289381 0 12 0
1.0846707 1.1363342 -0.37232792 0 13 0
1.1052876 1.157933 -0.34026319 0 14 0
1.1264015 1.1800526 -0.30726647 0 15 0
1.1500309 1.2048074 -0.2737391 0 16 0
1.1559799 1.2110399 -0.23528153 0 17 0
1.1868695 1.2434008 -0.2008965 0 18 0
1.2102609 1.2679063 -0.16360722 0 19 0
1.2381769 1.2971519 -0.1253639 0 20 0
1.2405478 1.2996358 -0.083643205 0 21 0
1.2715536 1.3321185 -0.042817377 0 22 0
1.3038534 1.3659567 5.3909389e-05 0 23 0
1.3373195 1.4010167 0.045142572 0 24 0
1.3679296 1.4330848 0.092345215 0 25 0
1.4129939 1.4802957 0.14318132 0 26 0
1.4411662 1.5098097 0.194942 0 27 0
1.5110108 1.5829811 0.25588921 0 28 0
1.5643159 1.6388252 0.31852379 0 29 0
1.5875043 1.663118 0.37800467 0 30 0
1.6194143 1.696548 0.44189209 0 31 0
0.71475691 0.77058697 -0.62331611 0 0 0
0.76151574 0.82099819 -0.62933689 0 1 0
0.78820795 0.84977525 -0.61635083 0 2 0
0.84673214 0.91287088 -0.62538809 0 3 0
0.87683743 0.9453277 -0.61047024 0 4 0
0.91254652 0.98382598 -0.59750819 0 5 0
0.93626732 1.0093997 -0.57502967 0 6 0
0.94892091 1.0230416 -0.54501909 0 7 0
0.96804857 1.0436634 -0.51815617 0 8 0
0.9881835 1.065371 -0.49094653 0 9 0
1.0068359 1.0854805 -0.46211344 0 10 0
1.0323657 1.1130043 -0.43532857 0 11 0
1.0546328 1.1370107 -0.40590695 0 12 0
1.0736932 1.15756 -0.37420887 0 13 0
1.0820432 1.1665621 -0.33821309 0 14 0
1.1131941 1.2001463 -0.30831808 0 15 0
1.1199342 1.2074128 -0.27066121 0 16 0
1.164811 1.2557951 -0.24071279 0 17 0
1.1653913 1.2564206 -0.20028448 0 18 0
1.1857851 1.2784073 -0.16275546 0 19 0
1.2111703 1.3057754 -0.12450912 0 20 0
1.2348096 1.3312613 -0.084532425 0 21 0
1.2590269 1.3573701 -0.043045375 0 22 0
1.2788398 1.3787307 5.3685617e-05 0 23 0
1.3130676 1.4156319 0.045003299 0 24 0
1.3446193 1.4496483 0.0921629 0 25 0
1.3823731 1.490351 0.14222552 0 26 0
1.416499 1.5271425 0.19454217 0 27 0
1.479984 1.5955864 0.25447643 0 28 0
1.520314 1.6390666 0.31430906 0 29 0
1.569793 1.6924103 0.37951663 0 30 0
1.590413 1.714641 0.44063026 0 31 0
0.70147246 0.77831596 -0.62138277 0 0 0
0.73784572 0.81867373 -0.61939603 0 1 0
0.78045529 0.865951 -0.61991727 0 2 0
0.8363989 0.92802298 -0.62750262 0 3 0
0.86740279 0.96242326 -0.61342967 0 4 0
0.89274776 0.99054468 -0.59376717 0 5 0
0.92011946 1.0209148 -0.57402807 0 6 0
0.9405728 1.0436087 -0.5487476 0 7 0
0.95995146 1.0651102 -0.52192885 0 8 0
0.97968936 1.0870104 -0.49440581 0 9 0
0.99454433 1.1034926 -0.46367386 0 10 0
1.0132337 1.1242292 -0.43400201 0 11 0
1.0227048 1.134738 -0.39982879 0 12 0
1.0589219 1.1749225 -0.3748835 0 13 0
1.0741054 1.1917694 -0.34102899 0 14 0
1.0979036 1.2181746 -0.30888078 0 15 0
1.1074363 1.2287514 -0.27186343 0 16 0
1.1278061 1.2513527 -0.23674272 0 17 0
1.1537778 1.2801695 -0.20141707 0 18 0
1.162846 1.2902311 -0.16212514 0 19 0
1.1869379 1.3169622 -0.12394315 0 20 0
1.2103363 1.3429238 -0.084164299 0 21 0
1.2368598 1.3723527 -0.042954683 0 22 0
1.2635452 1.4019614 5.3880434e-05 0 23 0
1.2989985 1.4412985 0.04522353 0 24 0
1.3359061 1.4822493 0.093010351 0 25 0
1.3558604 1.5043893 0.14169866 0 26 0
1.4088694 1.5632054 0.19654717 0 27 0
1.4583914 1.6181524 0.25472009 0 28 0
1.5007651 1.6651679 0.31516272 0 29 0
1.5374885 1.7059141 0.3775712 0 30 0
1.5689826 1.7408583 0.44155121 0 31 0
0.69748747 0.79652786 -0.62788773 0 0 0
0.73138207 0.83523542 -0.62394202 0 1 0
0.78445667 0.89584637 -0.63321579 0 2 0
0.81800109 0.93415391 -0.62366736 0 3 0
0.85228884 0.97331041 -0.61253065 0 4 0
0.88510305 1.0107841 -0.59824395 0 5 0
0.90158987 1.0296119 -0.57160366 0 6 0
0.9174403 1.0477132 -0.54394519 0 7 0
0.93329597 1.0658202 -0.51567787 0 8 0
0.95717615 1.0930914 -0.49088991 0 9 0
0.98160201 1.1209855 -0.46507281 0 10 0
0.99526834 1.1365925 -0.43323091 0 11 0
1.0205781 1.1654961 -0.40547782 0 12 0
1.025407 1.1710106 -0.36891448 0 13 0
1.0527593 1.2022469 -0.33968043 0 14 0
1.0720237 1.2242467 -0.30649832 0 15 0
1.094909 1.2503816 -0.27315369 0 16 0
1.111912 1.2697991 -0.23719729 0 17 0
1.1319011 1.2926266 -0.20080738 0 18 0
1.1456985 1.308383 -0.16232879 0 19 0
1.1755384 1.34246 -0.1247465 0 20 0
1.1882099 1.3569309 -0.083967671 0 21 0
1.224304 1.3981502 -0.043209214 0 22 0
1.2403883 1.4165184 5.3752054e-05 0 23 0
1.2663548 1.4461721 0.044803124 0 24 0
1.3102082 1.4962524 0.092702769 0 25 0
1.3439858 1.5348263 0.14273897 0 26 0
1.3859764 1.5827794 0.19649383 0 27 0
1.4339612 1.6375779 0.25452095 0 28 0
1.4952331 1.70755 0.31910092 0 29 0
1.5051361 1.7188594 0.3756296 0 30 0
1.5415639 1.7604597 0.44088116 0 31 0
0.68377471 0.80379385 -0.62583625 0 0 0
0.73145378 0.85984182 -0.63443756 0 1 0
0.75676876 0.88960016 -0.6210807 0 2 0
0.81009901 0.95229119 -0.62797064 0 3 0
0.8397423 0.98713756 -0.61360532 0 4 0
0.86384743 1.0154738 -0.59364063 0 5 0
0.88215262 1.036992 -0.56863266 0 6 0
0.90189654 1.0602014 -0.54367089 0 7 0
0.92297626 1.0849811 -0.51850355 0 8 0
0.93706948 1.1015481 -0.4886142 0 9 0
0.9641645 1.1333989 -0.46444973 0 10 0
0.98912972 1.1627462 -0.43775848 0 11 0
0.99663222 1.1715655 -0.40258524 0 12 0
1.0299923 1.2107812 -0.37676069 0 13 0
1.0295402 1.2102497 -0.33774337 0 14 0
1.0537573 1.2387176 -0.30631369 0 15 0
1.0758938 1.2647394 -0.27289814 0 16 0
1.0969846 1.2895322 -0.23792599 0 17 0
1.1115428 1.3066458 -0.2004931 0 18 0
1.1285338 1.3266191 -0.16257055 0 19 0
1.1539041 1.3564423 -0.12449828 0 20 0
1.1621132 1.3660924 -0.08349672 0 21 0
1.2042665 1.4156446 -0.043212742 0 22 0
1.224025 1.4388713 5.3929918e-05 0 23 0
1.2558601 1.4762942 0.0451748 0 24 0
1.2818575 1.5068549 0.092213444 0 25 0
1.3234828 1.5557864 0.14291185 0 26 0
1.3643694 1.6038495 0.19666503 0 27 0
1.4170796 1.6658117 0.25573048 0 28 0
1.4618032 1.7183853 0.3171832 0 29 0
1.4813759 1.7413936 0.37588188 0 30 0
1.5112789 1.7765453 0.43944719 0 31 0
0.67458862 0.81638747 -0.62805939 0 0 0
0.70551234 0.85381138 -0.62247318 0 1 0
0.7437849 0.9001289 -0.62093514 0 2 0
0.79167527 0.95808583 -0.62425542 0 3 0
0.82762516 1.0015924 -0.61516386 0 4 0
0.85257858 1.0317911 -0.59598458 0 5 0
0.87746692 1.061911 -0.57535094 0 6 0
0.89113379 1.0784506 -0.5464322 0 7 0
0.90645349 1.0969905 -0.51798928 0 8 0
0.9299621 1.1254406 -0.49325734 0 9 0
0.94741195 1.1465585 -0.46423778 0 10 0
0.96774691 1.1711679 -0.43566948 0 11 0
0.9852218 1.1923159 -0.4048284 0 12 0
1.0032802 1.2141701 -0.37330842 0 13 0
1.0185628 1.2326652 -0.33989543 0 14 0
1.0340282 1.2513814 -0.30575401 0 15 0
1.046453 1.2664179 -0.27000073 0 16 0
1.0706902 1.2957498 -0.23622137 0 17 0
1.0891147 1.3180472 -0.19983009 0 18 0
1.1167539 1.3514962 -0.16364352 0 19 0
1.1294676 1.3668822 -0.12395997 0 20 0
1.1464547 1.3874401 -0.083789952 0 21 0
1.1710982 1.4172637 -0.042746104 0 22 0
1.212136 1.4669276 5.4325643e-05 0 23 0
1.2348869 1.4944607 0.045185197 0 24 0
1.2597183 1.5245118 0.092181116 0 25 0
1.2960873 1.5685256 0.14236335 0 26 0
1.353341 1.637814 0.19843417 0 27 0
1.3880465 1.6798146 0.25480402 0 28 0
1.4456182 1.7494878 0.31907213 0 29 0
1.4708383 1.7800094 0.37963399 0 30 0
1.5000745 1.8153909 0.44369951 0 31 0
0.66583169 0.8296923 -0.63089854 0 0 0
0.69164616 0.86185962 -0.6210596 0 1 0
0.73459238 0.91537493 -0.62413514 0 2 0
0.77658719 0.96770459 -0.62321627 0 3 0
0.8105846 1.0100688 -0.61318117 0 4 0
0.83204037 1.0368048 -0.59194082 0 5 0
0.83975369 1.0464163 -0.56038606 0 6 0
0.87756222 1.0935295 -0.54765195 0 7 0
0.89502132 1.1152853 -0.5205254 0 8 0
0.90782839 1.1312441 -0.49005565 0 9 0
0.93079007 1.1598567 -0.46418029 0 10 0
0.94727069 1.1803931 -0.43401298 0 11 0
0.95998514 1.1962366 -0.40145308 0 12 0
0.98732781 1.2303083 -0.37388691 0 13 0
0.99625212 1.2414289 -0.33834529 0 14 0
1.0163839 1.2665151 -0.30586579 0 15 0
1.0345256 1.2891215 -0.2716563 0 16 0
1.047175 1.3048838 -0.23512997 0 17 0
1.071684 1.3354244 -0.20011853 0 18 0
1.0938141 1.3630008 -0.16312411 0 19 0
1.1099285 1.383081 -0.12397554 0 20 0
1.1402971 1.4209231 -0.08481767 0 21 0
1.1567646 1.4414433 -0.0429716 0 22 0
1.1845291 1.4760406 5.4029701e-05 0 23 0
1.2106537 1.5085944 0.045083977 0 24 0
1.2490585 1.5564507 0.093021773 0 25 0
1.2892332 1.6065123 0.1441215 0 26 0
1.3244083 1.6503439 0.19763525 0 27 0
1.3707013 1.7080296 0.25608161 0 28 0
1.4135125 1.7613766 0.31751794 0 29 0
1.4470272 1.8031392 0.38011074 0 30 0
1.4651939 1.8257767 0.44106695 0 31 0
0.64243877 0.82444263 -0.61985087 0 0 0
0.67878234 0.87108243 -0.62064081 0 1 0
0.72524083 0.93070263 -0.62744391 0 2 0
0.75947702 0.97463804 -0.62061703 0 3 0
0.7922014 1.0166333 -0.61022013 0 4 0
0.81081712 1.0405228 -0.58737749 0 5 0
0.83351141 1.0696465 -0.56637937 0 6 0
0.85650021 1.099148 -0.54427034 0 7 0
0.8648653 1.109883 -0.51217395 0 8 0
0.89508748 1.1486671 -0.49200282 0 9 0
0.91836399 1.178538 -0.46634814 0 10 0
0.92482245 1.186826 -0.43146688 0 11 0
0.95475376 1.2252369 -0.40655762 0 12 0
0.96479511 1.2381231 -0.37202698 0 13 0
0.97861707 1.2558608 -0.33842632 0 14 0
0.99775791 1.2804242 -0.30574459 0 15 0
1.0198203 1.308737 -0.27268589 0 16 0
1.0384377 1.3326287 -0.23742674 0 17 0
1.0562435 1.355479 -0.20083764 0 18 0
1.071811 1.3754566 -0.16276211 0 19 0
1.1022021 1.4144576 -0.12536107 0 20 0
1.1221272 1.4400276 -0.084990606 0 21 0
1.1408795 1.4640925 -0.043155562 0 22 0
1.1677698 1.4986007 5.4238106e-05 0 23 0
1.1822319 1.5171599 0.044829659 0 24 0
1.2262399 1.5736355 0.092990316 0 25 0
1.2584978 1.6150322 0.14325514 0 26 0
1.3063415 1.6764301 0.19849963 0 27 0
1.3564309 1.7407099 0.25804397 0 28 0
1.3978233 1.7938287 0.31972849 0 29 0
1.4328845 1.8388228 0.38327023 0 30 0
1.4509566 1.8620148 0.44475856 0 31 0
0.63478023 0.83911353 -0.62398601 0 0 0
0.67088938 0.88684613 -0.62496644 0 1 0
0.70711374 0.93473101 -0.62327248 0 2 0
0.75273633 0.99503928 -0.626683 0 3 0
0.78002733 1.0311152 -0.6121484 0 4 0
0.80871677 1.0690396 -0.59687972 0 5 0
0.81674951 1.079658 -0.56543243 0 6 0
0.8359741 1.1050709 -0.54122269 0 7 0
0.85857612 1.1349485 -0.51801676 0 8 0
0.87751287 1.1599809 -0.4914186 0 9 0
0.88684976 1.1723233 -0.45881903 0 10 0
0.91223991 1.2058865 -0.4336049 0 11 0
0.93500096 1.2359742 -0.40563813 0 12 0
0.94223088 1.2455314 -0.37016273 0 13 0
0.96699339 1.2782649 -0.34069899 0 14 0
0.97935516 1.2946059 -0.30575237 0 15 0
0.99443102 1.3145345 -0.2709004 0 16 0
1.0119603 1.3377064 -0.23572662 0 17 0
1.0325308 1.3648986 -0.20002304 0 18 0
1.0557852 1.3956385 -0.16334531 0 19 0
1.0698385 1.4142154 -0.12396973 0 20 0
1.0937488 1.4458224 -0.084399991 0 21 0
1.1282024 1.4913665 -0.043479048 0 22 0
1.1473094 1.5166239 5.4290496e-05 0 23 0
1.1743878 1.5524188 0.045370162 0 24 0
1.2117096 1.6017543 0.093617454 0 25 0
1.237077 1.6352874 0.1434665 0 26 0
1.2854582 1.6992422 0.19900176 0 27 0
1.3316293 1.7602757 0.25809249 0 28 0
1.3815352 1.8262461 0.32194895 0 29 0
1.4014013 1.8525071 0.38190243 0 30 0
1.4295485 1.8897148 0.44644174 0 31 0
0.62592638 0.85249889 -0.62721318 0 0 0
0.66387761 0.90418774 -0.63042623 0 1 0
0.69575638 0.94760597 -0.62515301 0 2 0
0.73128325 0.99599284 -0.62062764 0 3 0
0.75672865 1.0306489 -0.60537922 0 4 0
0.78352123 1.0671399 -0.58949697 0 5 0
0.80474848 1.096051 -0.56792694 0 6 0
0.81408781 1.108771 -0.53727281 0 7 0
0.84166354 1.1463286 -0.51765925 0 8 0
0.85625029 1.1661954 -0.48880914 0 9 0
0.87502575 1.1917672 -0.46147978 0 10 0
0.88659239 1.2075207 -0.42958546 0 11 0
0.9124099 1.2426836 -0.40351266 0 12 0
0.93054956 1.2673895 -0.37266219 0 13 0
0.94578397 1.2881384 -0.33968765 0 14 0
0.96742618 1.3176147 -0.30788454 0 15 0
0.9802928 1.3351388 -0.27222705 0 16 0
0.99272901 1.3520766 -0.2357308 0 17 0
1.0102355 1.3759203 -0.19949874 0 18 0
1.0354971 1.4103258 -0.16331288 0 19 0
1.0700036 1.4573232 -0.12639305 0 20 0
1.0827553 1.4746907 -0.085171759 0 21 0
1.1036239 1.5031132 -0.043356534 0 22 0
1.1273376 1.5354108 5.4379816e-05 0 23 0
1.1656952 1.5876529 0.045907561 0 24 0
1.1903383 1.6212164 0.093749538 0 25 0
1.2321963 1.6782261 0.14567134 0 26 0
1.2689949 1.7283452 0.20026237 0 27 0
1.312853 1.788079 0.25938725 0 28 0
1.3535973 1.8435718 0.32155478 0 29 0
1.3782262 1.8771158 0.38286957 0 30 0
1.4059825 1.9149195 0.4475961 0 31 0
0.60547906 0.84988481 -0.61885029 0 0 0
0.64382166 0.90370464 -0.6236003 0 1 0
0.67277968 0.94435173 -0.61659002 0 2 0
0.72745949 1.0211035 -0.62972194 0 3 0
0.74712813 1.0487114 -0.60964489 0 4 0
0.76635528 1.0756998 -0.5881058 0 5 0
0.7867769 1.1043648 -0.56634152 0 6 0
0.80044562 1.1235509 -0.53882778 0 7 0
0.81802183 1.148222 -0.5131743 0 8 0
0.84254038 1.1826376 -0.49059579 0 9 0
0.86288434 1.2111934 -0.46417201 0 10 0
0.87838 1.232944 -0.43411273 0 11 0
0.89569652 1.2572504 -0.40403834 0 12 0
0.90544432 1.2709332 -0.36985549 0 13 0
0.92260659 1.295023 -0.33798611 0 14 0
0.94110525 1.3209888 -0.30549404 0 15 0
0.96092498 1.3488089 -0.27218205 0 16 0
0.98169625 1.3779646 -0.23777013 0 17 0
0.9950434 1.3966994 -0.20042598 0 18 0
1.0195441 1.43109 -0.16401066 0 19 0
1.0450811 1.4669353 -0.12591644 0 20 0
1.0628034 1.4918112 -0.085273229 0 21 0
1.0891563 1.5288016 -0.043643355 0 22 0
1.1112697 1.5598413 5.4676122e-05 0 23 0
1.1423953 1.6035309 0.045889165 0 24 0
1.1733315 1.6469548 0.094257087 0 25 0
1.2115563 1.7006092 0.14609398 0 26 0
1.252394 1.7579312 0.20159276 0 27 0
1.2853001 1.8041203 0.25901896 0 28 0
1.3390288 1.879537 0.32445166 0 29 0
1.3626329 1.9126689 0.38610351 0 30 0
1.3908935 1.9523371 0.45164242 0 31 0
0.59440845 0.86013466 -0.62005508 0 0 0
0.63845307 0.92386907 -0.63114411 0 1 0
0.66004366 0.95511162 -0.61738366 0 2 0
0.71244997 1.0309458 -0.62943834 0 3 0
0.73492092 1.0634623 -0.61204207 0 4 0
0.75553554 1.0932925 -0.5917511 0 5 0
0.7703104 1.1146723 -0.56591529 0 6 0
0.78653044 1.1381434 -0.5403716 0 7 0
0.80655783 1.1671239 -0.51640958 0 8 0
0.82693231 1.1966066 -0.49143019 0 9 0
0.84060085 1.2163856 -0.46150351 0 10 0
0.86132413 1.2463732 -0.43445572 0 11 0
0.87769055 1.270056 -0.40407497 0 12 0
0.88911557 1.2865885 -0.37066993 0 13 0
0.90898645 1.3153425 -0.3398588 0 14 0
0.92891347 1.3441778 -0.3077504 0 15 0
0.95015961 1.3749219 -0.27467895 0 16 0
0.95840728 1.3868567 -0.2369131 0 17 0
0.98482132 1.4250789 -0.20245489 0 18 0
1.0002487 1.447403 -0.16422258 0 19 0
1.0264324 1.485292 -0.1262181 0 20 0
1.0395437 1.5042646 -0.085125834 0 21 0
1.0653043 1.5415412 -0.043567281 0 22 0
1.1023964 1.5952151 5.5357294e-05 0 23 0
1.1226097 1.6244646 0.046023685 0 24 0
1.1542633 1.6702687 0.094636127 0 25 0
1.1900038 1.7219868 0.1464522 0 26 0
1.2299989 1.7798616 0.202068 0 27 0
1.2737474 1.8431674 0.26198062 0 28 0
1.3114324 1.8976991 0.32431331 0 29 0
1.3371987 1.9349842 0.38670489 0 30 0
1.3655843 1.9760592 0.45256209 0 31 0
0.58333147 0.87048489 -0.62143373 0 0 0
0.62562007 0.93359065 -0.6316033 0 1 0
0.65009564 0.97011471 -0.62100321 0 2 0
0.69804502 1.0416678 -0.62981987 0 3 0
0.72154993 1.0767434 -0.61367893 0 4 0
0.73397565 1.0952859 -0.58708358 0 5 0
0.75805724 1.131222 -0.5687505 0 6 0
0.77383453 1.1547658 -0.5429492 0 7 0
0.78153741 1.1662606 -0.51102567 0 8 0
0.80685818 1.2040459 -0.48969227 0 9 0
0.82291746 1.2280107 -0.46139789 0 10 0
0.84257233 1.2573409 -0.43403047 0 11 0
0.8636536 1.2887996 -0.40606377 0 12 0
0.87529224 1.3061676 -0.37266308 0 13 0
0.88883722 1.3263803 -0.33938879 0 14 0
0.91370642 1.3634918 -0.3091464 0 15 0
0.91376543 1.3635798 -0.26977247 0 16 0
0.93591017 1.3966256 -0.23626928 0 17 0
0.95548612 1.4258381 -0.20059927 0 18 0
0.97951233 1.4616916 -0.16423622 0 19 0
1.0101016 1.5073388 -0.12684998 0 20 0
1.0193197 1.5210947 -0.085243866 0 21 0
1.0511475 1.5685902 -0.043902028 0 22 0
1.0811363 1.6133416 5.5443634e-05 0 23 0
1.1024122 1.6450907 0.046156269 0 24 0
1.14244 1.7048228 0.095657624 0 25 0
1.1721528 1.7491621 0.14732142 0 26 0
1.2198269 1.8203046 0.20465632 0 27 0
1.2548649 1.8725905 0.26358274 0 28 0
1.2942373 1.9313444 0.32686383 0 29 0
1.3258382 1.9785014 0.39156908 0 30 0
1.3352565 1.9925561 0.45191684 0 31 0
0.57524514 0.88556695 -0.62625855 0 0 0
0.60815835 0.93623555 -0.62743926 0 1 0
0.63840538 0.98279959 -0.62321001 0 2 0
0.67648572 1.0414228 -0.62375337 0 3 0
0.69976807 1.077265 -0.60820532 0 4 0
0.72150958 1.1107352 -0.58976865 0 5 0
0.73444384 1.1306471 -0.56311834 0 6 0
0.76007587 1.1701065 -0.54499102 0 7 0
0.77466804 1.1925706 -0.51764244 0 8 0
0.79087323 1.2175177 -0.49051714 0 9 0
0.81128317 1.2489381 -0.46485025 0 10 0
0.82703954 1.2731943 -0.43537208 0 11 0
0.83970028 1.2926852 -0.40345979 0 12 0
0.85658115 1.3186725 -0.37269458 0 13 0
0.87970364 1.3542687 -0.34326771 0 14 0
0.89732647 1.3813983 -0.3102625 0 15 0
0.90283835 1.3898836 -0.27239192 0 16 0
0.92769253 1.4281456 -0.23933072 0 17 0
0.9457882 1.4560032 -0.2029178 0 18 0
0.96649903 1.4878867 -0.16560815 0 19 0
0.98812068 1.5211724 -0.12681092 0 20 0
1.0033776 1.5446599 -0.085750848 0 21 0
1.0321221 1.5889108 -0.04405278 0 22 0
1.0547671 1.623772 5.5277589e-05 0 23 0
1.0904127 1.6786468 0.046655074 0 24 0
1.1308272 1.7408633 0.096761756 0 25 0
1.1528325 1.7747396 0.14807071 0 26 0
1.1910186 1.8335255 0.20420517 0 27 0
1.230278 1.8939641 0.2640855 0 28 0
1.2723687 1.9587609 0.32838798 0 29 0
1.3001188 2.0014811 0.39239383 0 30 0
1.3278923 2.0442371 0.45928043 0 31 0
0.56451929 0.89689833 -0.62849337 0 0 0
0.58981329 0.93708497 -0.62228698 0 1 0
0.63059121 1.0018723 -0.6295163 0 2 0
0.66215897 1.0520265 -0.62436372 0 3 0
0.68576312 1.0895283 -0.60952479 0 4 0
0.70570856 1.1212174 -0.58991051 0 5 0
0.7236163 1.1496688 -0.56737548 0 6 0
0.73727518 1.1713698 -0.54060888 0 7 0
0.75684363 1.2024598 -0.51717979 0 8 0
0.77170086 1.2260648 -0.48946032 0 9 0
0.78716642 1.2506361 -0.46124145 0 10 0
0.80447268 1.2781321 -0.43307868 0 11 0
0.82682633 1.3136472 -0.40626687 0 12 0
0.84010565 1.3347452 -0.37380031 0 13 0
0.86186373 1.369314 -0.34391913 0 14 0
0.88314348 1.4031228 -0.3122707 0 15 0
0.88873053 1.4119995 -0.27420506 0 16 0
0.90694326 1.4409355 -0.2392741 0 17 0
0.92661113 1.4721835 -0.20330353 0 18 0
0.94185984 1.4964104 -0.16503945 0 19 0
0.97205317 1.5443809 -0.12757273 0 20 0
0.98524213 1.5653353 -0.086106941 0 21 0
1.011861 1.6076268 -0.044165608 0 22 0
1.0436404 1.6581174 5.5932538e-05 0 23 0
1.070166 1.700261 0.046825275 0 24 0
1.0954385 1.7404134 0.095855415 0 25 0
1.1424321 1.815076 0.15005639 0 26 0
1.1732926 1.8641068 0.20571963 0 27 0
1.207558 1.918547 0.26507604 0 28 0
1.2570556 1.9971879 0.33177981 0 29 0
1.2883222 2.0468636 0.39763516 0 30 0
1.3005558 2.0663002 0.46000791 0 31 0
0.55088937 0.90367901 -0.62765509 0 0 0
0.57689673 0.94634151 -0.62288666 0 1 0
0.61715287 1.0123777 -0.63050222 0 2 0
0.64209217 1.0532881 -0.61959457 0 3 0
0.65963185 1.0820602 -0.60000336 0 4 0
0.69442803 1.1391399 -0.59404975 0 5 0
0.70878452 1.1626902 -0.56873667 0 6 0
0.72777629 1.1938443 -0.54611772 0 7 0
0.74034649 1.2144645 -0.51773226 0 8 0
0.75817114 1.2437041 -0.49211946 0 9 0
0.76950532 1.2622966 -0.46143252 0 10 0
0.78048754 1.2803119 -0.42998794 0 11 0
0.80929756 1.3275719 -0.40694913 0 12 0
0.81844628 1.3425794 -0.37267539 0 13 0
0.83949536 1.3771083 -0.34282365 0 14 0
0.86728555 1.4226954 -0.31383175 0 15 0
0.87000322 1.4271533 -0.27470148 0 16 0
0.88891369 1.4581741 -0.23999928 0 17 0
0.90804303 1.4895539 -0.20388657 0 18 0
0.92992204 1.5254443 -0.16675653 0 19 0
0.95106667 1.56013 -0.12773609 0 20 0
0.97061378 1.592195 -0.086811341 0 21 0
0.99525255 1.6326125 -0.044456113 0 22 0
1.0271116 1.6848742 5.6333422e-05 0 23 0
1.0532815 1.7278032 0.047163762 0 24 0
1.0805379 1.7725146 0.096761696 0 25 0
1.1190237 1.8356465 0.15041743 0 26 0
1.1575301 1.8988125 0.20769998 0 27 0
1.1953121 1.9607902 0.26852116 0 28 0
1.2394215 2.0331471 0.33477211 0 29 0
1.2609174 2.0684092 0.3982738 0 30 0
1.2838871 2.1060886 0.46472704 0 31 0
0.53851128 0.91250747 -0.62836903 0 0 0
0.56596476 0.95902741 -0.62584043 0 1 0
0.5939728 1.006487 -0.62147498 0 2 0
0.62608063 1.0608938 -0.61873364 0 3 0
0.65386361 1.107972 -0.60911947 0 4 0
0.67245847 1.1394809 -0.58914781 0 5 0
0.69711006 1.1812531 -0.57287735 0 6 0
0.71041226 1.2037936 -0.54596156 0 7 0
0.7253238 1.2290614 -0.51947588 0 8 0
0.738087 1.2506886 -0.49065259 0 9 0
0.75607163 1.2811635 -0.46432576 0 10 0
0.76755613 1.300624 -0.43307558 0 11 0
0.79142243 1.3410654 -0.40757123 0 12 0
0.78930932 1.3374848 -0.36808747 0 13 0
0.8179462 1.3860099 -0.3420901 0 14 0
0.83728391 1.4187777 -0.31029215 0 15 0
0.85142016 1.4427316 -0.27532607 0 16 0
0.86945295 1.4732882 -0.24041396 0 17 0
0.88244963 1.495311 -0.20292492 0 18 0
0.90805215 1.5386945 -0.16676708 0 19 0
0.9259094 1.5689536 -0.12736039 0 20 0
0.94820178 1.6067281 -0.086854838 0 21 0
0.98412162 1.6675943 -0.045020491 0 22 0
1.008669 1.7091898 5.6657889e-05 0 23 0
1.0326225 1.749779 0.04735532 0 24 0
1.0670304 1.8080832 0.097859621 0 25 0
1.0974501 1.8596294 0.15108 0 26 0
1.1296349 1.9141665 0.20758957 0 27 0
1.1755487 1.9919674 0.27045879 0 28 0
1.2190948 2.0657563 0.33723369 0 29 0
1.2472693 2.113498 0.4034768 0 30 0
1.2703776 2.1526551 0.47094175 0 31 0
0.52330023 0.91645032 -0.62586212 0 0 0
0.54300714 0.95096284 -0.61544257 0 1 0
0.58134574 1.0181048 -0.62344676 0 2 0
0.61141038 1.0707567 -0.61931849 0 3 0
0.63054574 1.1042682 -0.60205984 0 4 0
0.6582675 1.152817 -0.59111089 0 5 0
0.67309117 1.1787777 -0.56694639 0 6 0
0.68876213 1.2062221 -0.54253614 0 7 0
0.71068436 1.2446142 -0.52169657 0 8 0
0.71908861 1.2593324 -0.48995557 0 9 0
0.73682916 1.2904013 -0.46380392 0 10 0
0.74899346 1.3117045 -0.43315101 0 11 0
0.76344097 1.3370063 -0.40297526 0 12 0
0.78328657 1.3717617 -0.37439689 0 13 0
0.80353618 1.4072247 -0.3444522 0 14 0
0.82041544 1.4367851 -0.31163025 0 15 0
0.84394515 1.4779924 -0.27972123 0 16 0
0.85707176 1.500981 -0.24290618 0 17 0
0.87452966 1.5315547 -0.20612362 0 18 0
0.89260554 1.563211 -0.16802229 0 19 0
0.91528028 1.6029209 -0.12904102 0 20 0
0.93801504 1.642736 -0.088066518 0 21 0
0.96514195 1.6902431 -0.045254357 0 22 0
0.985452 1.725812 5.6735513e-05 0 23 0
1.0168009 1.7807128 0.047793724 0 24 0
1.0422969 1.8253636 0.0979774 0 25 0
1.073626 1.8802302 0.15148966 0 26 0
1.1101652 1.9442209 0.20910423 0 27 0
1.1624731 2.0358272 0.27412659 0 28 0
1.2017883 2.1046793 0.34074479 0 29 0
1.2257409 2.1466272 0.40641037 0 30 0
1.2605786 2.2076383 0.4789741 0 31 0
0.51119041 0.92576563 -0.62716258 0 0 0
0.53877562 0.97572237 -0.62641144 0 1 0
0.57631838 1.0437123 -0.63401139 0 2 0
0.59379154 1.0753562 -0.61699975 0 3 0
0.6153602 1.114417 -0.6027292 0 4 0
0.63812804 1.1556495 -0.5878197 0 5 0
0.66010416 1.1954483 -0.57036155 0 6 0
0.66708016 1.2080818 -0.5390228 0 7 0
0.69042575 1.2503606 -0.51990968 0 8 0
0.7068972 1.2801905 -0.49408343 0 9 0
0.71934056 1.3027253 -0.4644852 0 10 0
0.73772466 1.3360189 -0.43764839 0 11 0
0.75104922 1.3601497 -0.40666899 0 12 0
0.76414096 1.3838589 -0.37467504 0 13 0
0.77993643 1.4124645 -0.34296709 0 14 0
0.79533607 1.4403533 -0.30990329 0 15 0
0.82253587 1.4896121 -0.2796635 0 16 0
0.83362007 1.5096855 -0.24235906 0 17 0
0.8531332 1.5450238 -0.20627177 0 18 0
0.8742699 1.5833023 -0.16881947 0 19 0
0.897874 1.6260494 -0.12985504 0 20 0
0.91917336 1.6646224 -0.088525452 0 21 0
0.94174629 1.705502 -0.045297354 0 22 0
0.97431892 1.7644911 5.7542715e-05 0 23 0
0.99995244 1.8109133 0.048215207 0 24 0
1.0236629 1.853853 0.098710001 0 25 0
1.0590032 1.9178544 0.15328406 0 26 0
1.093897 1.9810468 0.21135929 0 27 0
1.1397398 2.0640681 0.27570438 0 28 0
1.1840525 2.1443183 0.34438318 0 29 0
1.2136246 2.1978736 0.41278148 0 30 0
1.2395344 2.2447963 0.48313713 0 31 0
0.50380087 0.94406599 -0.63461 0 0 0
0.52973318 0.99266022 -0.63235283 0 1 0
0.55192715 1.0342492 -0.62340021 0 2 0
0.58028185 1.0873828 -0.61907113 0 3 0
0.60556084 1.1347528 -0.60897744 0 4 0
0.62105596 1.1637889 -0.58737797 0 5 0
0.64986724 1.217778 -0.57651818 0 6 0
0.66286665 1.2421374 -0.54992807 0 7 0
0.67016536 1.2558143 -0.51813567 0 8 0
0.69078982 1.2944622 -0.49572468 0 9 0
0.7003848 1.3124422 -0.46432775 0 10 0
0.71934503 1.3479714 -0.43814602 0 11 0
0.73055345 1.3689748 -0.40613952 0 12 0
0.74832344 1.4022737 -0.37672219 0 13 0
0.76438493 1.4323711 -0.34510875 0 14 0
0.7823506 1.4660368 -0.31298789 0 15 0
0.79908586 1.4973967 -0.27894908 0 16 0
0.82116288 1.5387666 -0.24511562 0 17 0
0.82724136 1.550157 -0.20535524 0 18 0
0.8528918 1.5982231 -0.16909142 0 19 0
0.874367 1.6384652 -0.12983379 0 20 0
0.89937079 1.6853194 -0.088932417 0 21 0
0.92530435 1.733916 -0.045695573 0 22 0
0.95430511 1.7882601 5.7866477e-05 0 23 0
0.98035896 1.8370821 0.048533369 0 24 0
1.0136651 1.8994941 0.10035738 0 25 0
1.0392499 1.947437 0.15444373 0 26 0
1.076725 2.0176613 0.21359955 0 27 0
1.1252432 2.1085789 0.27946985 0 28 0
1.1725223 2.1971748 0.35014081 0 29 0
1.2008592 2.2502747 0.41935182 0 30 0
1.2315696 2.3078227 0.49285755 0 31 0
0.48383912 0.93876475 -0.62632698 0 0 0
0.50773466 0.98512787 -0.62286115 0 1 0
0.53808832 1.0440212 -0.62458402 0 2 0
0.56489021 1.0960234 -0.61932373 0 3 0
0.57994252 1.1252285 -0.59934998 0 4 0
0.60620487 1.1761838 -0.58919412 0 5 0
0.6263712 1.2153114 -0.57104754 0 6 0
0.64130259 1.2442819 -0.54675758 0 7 0
0.65830207 1.2772651 -0.52304476 0 8 0
0.67067415 1.3012698 -0.4946048 0 9 0
0.68489915 1.3288697 -0.46662354 0 10 0
0.70264649 1.3633039 -0.43981561 0 11 0
0.71775872 1.3926252 -0.41006607 0 12 0
0.72985995 1.4161046 -0.37759265 0 13 0
0.74329126 1.4421645 -0.34486967 0 14 0
0.76574314 1.4857266 -0.31481931 0 15 0
0.78017032 1.5137187 -0.27988076 0 16 0
0.79818141 1.5486647 -0.24484736 0 17 0
0.81659091 1.5843836 -0.20831963 0 18 0
0.83255893 1.6153654 -0.16962691 0 19 0
0.85413462 1.6572274 -0.13033842 0 20 0
0.88215679 1.7115972 -0.08964359 0 21 0
0.90667427 1.7591671 -0.046014313 0 22 0
0.93150336 1.8073415 5.8046542e-05 0 23 0
0.96102709 1.8646246 0.048892591 0 24 0
0.99083519 1.9224595 0.10081109 0 25 0
1.013535 1.9665028 0.15478937 0 26 0
1.063783 2.0639961 0.21687062 0 27 0
1.1110208 2.1556487 0.28357169 0 28 0
1.153942 2.2389259 0.35412589 0 29 0
1.1816018 2.2925928 0.42404279 0 30 0
1.2314841 2.3893764 0.50645787 0 31 0
0.46926859 0.94341123 -0.62488168 0 0 0
0.50014615 1.0054871 -0.63114262 0 1 0
0.52906239 1.06362 -0.63171381 0 2 0
0.54746521 1.1006167 -0.61742806 0 3 0
0.56619424 1.1382693 -0.60191774 0 4 0
0.58993274 1.1859928 -0.58981752 0 5 0
0.60399151 1.2142564 -0.56643164 0 6 0
0.62743586 1.2613885 -0.55027187 0 7 0
0.63743287 1.2814865 -0.52098387 0 8 0
0.65140963 1.3095852 -0.49417084 0 9 0
0.66729474 1.3415204 -0.46766397 0 10 0
0.67515159 1.3573157 -0.43472159 0 11 0
0.69226253 1.3917153 -0.4068388 0 12 0
0.7106415 1.4286641 -0.37819058 0 13 0
0.72752875 1.4626139 -0.34723404 0 14 0
0.74659461 1.5009438 -0.31574702 0 15 0
0.76744598 1.542863 -0.28320935 0 16 0
0.77912354 1.5663395 -0.24585345 0 17 0
0.79827106 1.6048335 -0.20948467 0 18 0
0.81876534 1.6460348 -0.17159924 0 19 0
0.83768243 1.6840655 -0.1314927 0 20 0
0.86306643 1.7350972 -0.090218134 0 21 0
0.88798511 1.7851933 -0.046357874 0 22 0
0.91133833 1.8321424 5.841814e-05 0 23 0
0.94103199 1.891838 0.049247928 0 24 0
0.97154021 1.9531714 0.10168195 0 25 0
1.0098901 2.0302694 0.1586546 0 26 0
1.0515102 2.1139419 0.22051458 0 27 0
1.0986434 2.208698 0.28845203 0 28 0
1.1346802 2.2811456 0.35819814 0 29 0
1.1674402 2.3470061 0.43097234 0 30 0
1.2142403 2.4410925 0.5136832 0 31 0
0.4564693 0.95159608 -0.62591124 0 0 0
0.48382705 1.0086285 -0.62870318 0 1 0
0.51295561 1.0693524 -0.6306932 0 2 0
0.53052986 1.1059892 -0.61611897 0 3 0
0.55211312 1.1509836 -0.60440028 0 4 0
0.57745808 1.20382 -0.59451187 0 5 0
0.59451085 1.2393696 -0.57411826 0 6 0
0.60667104 1.26472 -0.54788089 0 7 0
0.62121576 1.2950411 -0.52282596 0 8 0
0.63303119 1.3196726 -0.49450755 0 9 0
0.64400089 1.3425411 -0.46475875 0 10 0
0.66359007 1.3833784 -0.43998179 0 11 0
0.6726318 1.4022275 -0.40705568 0 12 0
0.69535512 1.4495986 -0.38105854 0 13 0
0.70752329 1.4749653 -0.34772646 0 14 0
0.73112547 1.5241686 -0.31839865 0 15 0
0.75078249 1.5651474 -0.28529808 0 16 0
0.76521695 1.5952387 -0.24864484 0 17 0
0.78022861 1.6265334 -0.21083787 0 18 0
0.80125952 1.6703762 -0.17292351 0 19 0
0.82777649 1.7256558 -0.13380127 0 20 0
0.84816962 1.7681692 -0.091297157 0 21 0
0.87407988 1.822184 -0.046988744 0 22 0
0.89616781 1.8682303 5.9153757e-05 0 23 0
0.91764712 1.9130081 0.04945204 0 24 0
0.94919598 1.9787775 0.10229723 0 25 0
0.99642521 2.0772359 0.16119374 0 26 0
1.0331954 2.1538901 0.22311622 0 27 0
1.0878098 2.2677441 0.29409978 0 28 0
1.1149735 2.3243721 0.36244267 0 29 0
1.1735842 2.4465573 0.44612226 0 30 0
1.2267228 2.5573344 0.53439456 0 31 0
0.4432689 0.95903897 -0.62656939 0 0 0
0.4712019 1.0194737 -0.63119453 0 1 0
0.49420452 1.0692413 -0.62639141 0 2 0
0.52304542 1.1316403 -0.62617373 0 3 0
0.53909183 1.1663576 -0.60835916 0 4 0
0.56083226 1.2133944 -0.59521484 0 5 0
0.57933098 1.2534175 -0.57672536 0 6 0
0.59596854 1.2894138 -0.55482614 0 7 0
0.61075687 1.3214092 -0.52988762 0 8 0
0.61785471 1.3367659 -0.49754786 0 9 0
0.6367113 1.3775634 -0.47367927 0 10 0
0.64285338 1.390852 -0.43938726 0 11 0
0.65998298 1.427913 -0.41172749 0 12 0
0.67003614 1.4496635 -0.37851578 0 13 0
0.69153488 1.4961773 -0.35035783 0 14 0
0.71092713 1.5381337 -0.31915754 0 15 0
0.72895271 1.5771332 -0.28555173 0 16 0
0.74537623 1.6126665 -0.24967276 0 17 0
0.76133531 1.6471949 -0.2120818 0 18 0
0.78258389 1.6931673 -0.17410547 0 19 0
0.80617183 1.7442013 -0.13433076 0 20 0
0.82885677 1.7932816 -0.091971807 0 21 0
0.85184318 1.843014 -0.047206637 0 22 0
0.87711477 1.8976907 5.968293e-05 0 23 0
0.89668721 1.9400368 0.049813859 0 24 0
0.93229496 2.0170763 0.10357669 0 25 0
0.97661114 2.112957 0.16286427 0 26 0
1.0264682 2.2208257 0.22850458 0 27 0
1.0718846 2.319087 0.298738 0 28 0
1.118004 2.4188688 0.37464404 0 29 0
1.1633606 2.5170007 0.45588434 0 30 0
1.7947664 3.8830853 0.80597997 0 31 0
0.43317816 0.97355646 -0.63193858 0 0 0
0.45360789 1.0194718 -0.62710923 0 1 0
0.47730058 1.0727204 -0.62436342 0 2 0
0.50995111 1.1461017 -0.6300723 0 3 0
0.52576435 1.1816415 -0.61234307 0 4 0
0.54535961 1.2256814 -0.59735179 0 5 0
0.56635898 1.2728769 -0.58188945 0 6 0
0.57723528 1.297321 -0.55461657 0 7 0
0.58646744 1.3180701 -0.52512866 0 8 0
0.60365957 1.356709 -0.50170338 0 9 0
0.6154353 1.3831745 -0.47253132 0 10 0
0.63298273 1.422612 -0.44651267 0 11 0
0.64366424 1.4466183 -0.41442207 0 12 0
0.65802485 1.4788935 -0.38364932 0 13 0
0.67758793 1.522861 -0.35429889 0 14 0
0.68285578 1.5347004 -0.31638464 0 15 0
0.7094534 1.5944777 -0.28682411 0 16 0
0.72093284 1.6202775 -0.24922797 0 17 0
0.74287325 1.6695881 -0.21357408 0 18 0
0.76349616 1.7159375 -0.17530519 0 19 0
0.78574961 1.7659515 -0.13512585 0 20 0
0.81227237 1.8255607 -0.09302149 0 21 0
0.83418679 1.8748128 -0.047710408 0 22 0
0.85630548 1.9245239 6.0135208e-05 0 23 0
0.88099027 1.9800023 0.050511084 0 24 0
0.9213118 2.0706239 0.10563837 0 25 0
0.95251781 2.1407585 0.16393952 0 26 0
1.0097554 2.2693985 0.23199144 0 27 0
1.0518953 2.3641069 0.30256686 0 28 0
1.1177119 2.512028 0.3865554 0 29 0
1.22062 2.7433112 0.49365917 0 30 0
1.6947848 3.808984 0.78548384 0 31 0
0.41669437 0.97380018 -0.62816095 0 0 0
0.43465531 1.0157744 -0.62094426 0 1 0
0.46410066 1.0845871 -0.62733954 0 2 0
0.48957792 1.1441265 -0.62507004 0 3 0
0.51184368 1.1961609 -0.61600757 0 4 0
0.52639621 1.2301695 -0.59580606 0 5 0
0.53994817 1.26184 -0.5732522 0 6 0
0.56107211 1.311206 -0.55706221 0 7 0
0.57392371 1.3412397 -0.53103238 0 8 0
0.58869892 1.3757688 -0.50558382 0 9 0
0.59522146 1.3910118 -0.47224984 0 10 0
0.61221039 1.4307144 -0.44625965 0 11 0
0.6226263 1.455056 -0.41424376 0 12 0
0.63498306 1.4839332 -0.38255978 0 13 0
0.65479362 1.5302298 -0.35379654 0 14 0
0.67462468 1.5765743 -0.3229934 0 15 0
0.69260412 1.6185917 -0.28934893 0 16 0
0.70644784 1.6509439 -0.2523638 0 17 0
0.72531021 1.6950246 -0.21547784 0 18 0
0.74190235 1.7337999 -0.17602715 0 19 0
0.76904941 1.7972417 -0.13666381 0 20 0
0.79030341 1.8469115 -0.093523443 0 21 0
0.81609166 1.9071777 -0.048231829 0 22 0
0.84083867 1.9650108 6.1017974e-05 0 23 0
0.87045652 2.0342267 0.051571254 0 24 0
0.90883005 2.1239042 0.10768192 0 25 0
0.93801934 2.1921186 0.1668274 0 26 0
1.0002865 2.3376346 0.237479 0 27 0
1.076215 2.5150769 0.31988427 0 28 0
1.1293219 2.6391859 0.40359393 0 29 0
1.5053254 3.5178931 0.62910354 0 30 0
1.6190108 3.7835717 0.77538508 0 31 0
0.4092904 0.99566072 -0.6384179 0 0 0
0.42666188 1.0379194 -0.63068372 0 1 0
0.44813752 1.0901622 -0.62678987 0 2 0
0.47351563 1.1518983 -0.62554902 0 3 0
0.49601161 1.2066231 -0.61767602 0 4 0
0.50609416 1.2311505 -0.59271199 0 5 0
0.52773583 1.283797 -0.57973617 0 6 0
0.54368216 1.3225889 -0.5585348 0 7 0
0.55533409 1.350934 -0.53166902 0 8 0
0.56634885 1.3777291 -0.50327355 0 9 0
0.58651811 1.4267939 -0.48149839 0 10 0
0.59348625 1.4437448 -0.44762853 0 11 0
0.60429442 1.4700373 -0.41600379 0 12 0
0.61770129 1.5026516 -0.3850666 0 13 0
0.63705581 1.5497345 -0.35616136 0 14 0
0.65715235 1.5986222 -0.32554996 0 15 0
0.66770381 1.6242902 -0.28862959 0 16 0
0.69182062 1.682958 -0.25571761 0 17 0
0.70805085 1.7224406 -0.21765241 0 18 0
0.72878695 1.7728842 -0.17891786 0 19 0
0.74794167 1.819481 -0.13752675 0 20 0
0.77553469 1.8866053 -0.094961606 0 21 0
0.79412484 1.9318285 -0.048562806 0 22 0
0.82248127 2.0008099 6.1757724e-05 0 23 0
0.84647012 2.0591664 0.051891044 0 24 0
0.88420564 2.1509635 0.10840107 0 25 0
0.9271093 2.2553334 0.17061087 0 26 0
0.98884243 2.4055085 0.2429115 0 27 0
1.0775118 2.6212099 0.33138746 0 28 0
1.1516048 2.8014526 0.42584401 0 29 0
1.4260118 3.4689889 0.61664474 0 30 0
1.5414532 3.7498178 0.76386791 0 31 0
0.38543192 0.97716266 -0.62295574 0 0 0
0.41020337 1.0399642 -0.62829411 0 1 0
0.43181071 1.0947441 -0.62580651 0 2 0
0.45921347 1.1642166 -0.62860477 0 3 0
0.48393559 1.2268932 -0.62444252 0 4 0
0.49633923 1.2583394 -0.6023196 0 5 0
0.51283765 1.3001667 -0.58375382 0 6 0
0.52889532 1.3408768 -0.56300324 0 7 0
0.53884417 1.3660997 -0.53454739 0 8 0
0.55115855 1.3973194 -0.507496 0 9 0
0.56528968 1.4331453 -0.48086199 0 10 0
0.56802011 1.4400676 -0.44392216 0 11 0
0.59115452 1.498719 -0.42168266 0 12 0
0.60678738 1.538352 -0.39194933 0 13 0
0.62170583 1.5761739 -0.3601557 0 14 0
0.63942736 1.6211022 -0.32823041 0 15 0
0.65186077 1.6526239 -0.29197645 0 16 0
0.67132175 1.7019622 -0.25711885 0 17 0
0.6854198 1.7377042 -0.21831907 0 18 0
0.70851338 1.7962518 -0.18023418 0 19 0
0.72841793 1.8467147 -0.13878295 0 20 0
0.75133562 1.9048165 -0.095327191 0 21 0
0.77630407 1.9681176 -0.049190685 0 22 0
0.80328482 2.0365202 6.2498686e-05 0 23 0
0.83162367 2.108366 0.052825503 0 24 0
0.86955452 2.2045298 0.11046205 0 25 0
0.91504753 2.3198657 0.17448393 0 26 0
0.98922759 2.5079298 0.25179854 0 27 0
1.0854878 2.7519729 0.34591949 0 28 0
1.1338257 2.8745208 0.43443954 0 29 0
1.3625275 3.454335 0.61051059 0 30 0
1.4681228 3.7220447 0.75385237 0 31 0
0.37015948 0.97927767 -0.62086278 0 0 0
0.39117074 1.0348642 -0.62176663 0 1 0
0.42004824 1.1112612 -0.63174683 0 2 0
0.43953356 1.1628107 -0.62438482 0 3 0
0.46228451 1.2229996 -0.6190297 0 4 0
0.47934854 1.2681434 -0.60366642 0 5 0
0.496858 1.3144658 -0.58692068 0 6 0
0.51158744 1.3534333 -0.56514293 0 7 0
0.52375197 1.3856153 -0.53919512 0 8 0
0.53358454 1.4116279 -0.50986665 0 9 0
0.5478878 1.4494679 -0.4836579 0 10 0
0.55493927 1.468123 -0.45007595 0 11 0
0.57724583 1.5271362 -0.42730972 0 12 0
0.59786856 1.5816948 -0.40077102 0 13 0
0.60246879 1.5938649 -0.36219054 0 14 0
0.61896366 1.6375031 -0.32972357 0 15 0
0.64120263 1.6963376 -0.29804754 0 16 0
0.65266508 1.726662 -0.25941244 0 17 0
0.67032021 1.7733698 -0.22157186 0 18 0
0.69424146 1.8366548 -0.18327233 0 19 0
0.71509051 1.8918121 -0.14138839 0 20 0
0.73047042 1.9325005 -0.096179537 0 21 0
0.75290942 1.9918642 -0.049509779 0 22 0
0.78096402 2.0660841 6.3056461e-05 0 23 0
0.81511408 2.15643 0.053731926 0 24 0
0.85257125 2.2555251 0.11239429 0 25 0
0.90609092 2.3971143 0.1793002 0 26 0
0.9815408 2.5967212 0.25927615 0 27 0
1.0626636 2.8113363 0.35143346 0 28 0
1.1366156 3.0069804 0.45195368 0 29 0
1.3004572 3.4404325 0.60470176 0 30 0
1.4035853 3.7132635 0.74792826 0 31 0
0.35972139 0.99446964 -0.62716585 0 0 0
0.37769184 1.0441499 -0.62403369 0 1 0
0.39928621 1.1038488 -0.62421995 0 2 0
0.42400897 1.1721961 -0.62610149 0 3 0
0.44615179 1.2334112 -0.62100369 0 4 0
0.4610728 1.2746613 -0.60356569 0 5 0
0.48040968 1.3281192 -0.58988625 0 6 0
0.49269339 1.3620781 -0.56575 0 7 0
0.50554794 1.3976152 -0.54099345 0 8 0
0.52059817 1.4392225 -0.51708913 0 9 0
0.52930373 1.4632895 -0.48569208 0 10 0
0.54069358 1.4947772 -0.45582798 0 11 0
0.5520438 1.5261556 -0.42478082 0 12 0
