# .PCD v0.7 - Point Cloud Data file format
VERSION 0.7
FIELDS x y z intensity ring time
SIZE 4 4 4 4 2 4
TYPE F F F F U F
COUNT 1 1 1 1 1 1
WIDTH 1196
HEIGHT 1
VIEWPOINT 0 0 0 1 0 0 0
POINTS 1196
DATA ascii
-3.6449695 3.6580493 -0.12006582 0 22 0
-3.7901037 3.8037045 0.00015329462 0 23 0
-4.0195818 4.0340061 0.13273095 0 24 0
-0.75306153 0.73443502 -0.62382793 0 0 0
-0.7981891 0.77844638 -0.62660581 0 1 0
-0.84826863 0.82728714 -0.63009334 0 2 0
-0.88270974 0.86087638 -0.61930668 0 3 0
-0.94434196 0.92098415 -0.62453818 0 4 0
-1.0125271 0.98748285 -0.62976694 0 5 0
-1.0771476 1.0505049 -0.62841982 0 6 0
-1.1471193 1.1187459 -0.62585622 0 7 0
-1.2333053 1.2028003 -0.62707353 0 8 0
-1.3208785 1.2882073 -0.62336701 0 9 0
-1.4428688 1.4071803 -0.62907302 0 10 0
-1.5597123 1.5211337 -0.62475884 0 11 0
-1.7036279 1.6614896 -0.62285119 0 12 0
-1.8879925 1.8412941 -0.62505531 0 13 0
-2.0910347 2.039314 -0.6208567 0 14 0
-2.3834167 2.3244643 -0.62706476 0 15 0
-2.7240968 2.6567178 -0.62537479 0 16 0
-3.0855618 3.0092421 -0.60570651 0 17 0
-3.2202003 3.1405504 -0.52570575 0 18 0
-3.3332267 3.2507813 -0.43458906 0 19 0
-3.4481637 3.3628752 -0.33671942 0 20 0
-3.5676262 3.479383 -0.23199946 0 21 0
-3.6966355 3.6052012 -0.12005561 0 22 0
-3.8708422 3.775099 0.00015435887 0 23 0
-4.1274104 4.0253215 0.13437524 0 24 0
-0.76044512 0.72069091 -0.62133545 0 0 0
-0.82417804 0.78109199 -0.63816583 0 1 0
-0.84541929 0.80122286 -0.61939484 0 2 0
-0.91036308 0.86277151 -0.62997949 0 3 0
-0.94752896 0.89799446 -0.61808205 0 4 0
-1.0135508 0.96056479 -0.62178838 0 5 0
-1.0800772 1.0236135 -0.62151754 0 6 0
-1.1675708 1.1065331 -0.62830883 0 7 0
-1.2516749 1.1862404 -0.62771612 0 8 0
-1.3429085 1.2727046 -0.62510258 0 9 0
-1.4544938 1.3784564 -0.62547505 0 10 0
-1.5934316 1.5101309 -0.62954277 0 11 0
-1.7321026 1.6415524 -0.62460732 0 12 0
-1.9094989 1.809675 -0.62353593 0 13 0
-2.1304238 2.0190504 -0.62390727 0 14 0
-2.4149661 2.2887175 -0.62668222 0 15 0
-2.7605438 2.6162293 -0.62508106 0 16 0
-3.1378119 2.9737747 -0.6075455 0 17 0
-3.2704034 3.0994349 -0.52660513 0 18 0
-3.3924696 3.2151196 -0.43626845 0 19 0
-3.4946692 3.3119764 -0.33659703 0 20 0
-3.6141939 3.4252527 -0.23181579 0 21 0
-3.7477627 3.5518386 -0.12005267 0 22 0
-3.9319875 3.7264328 0.00015465436 0 23 0
-4.223094 4.0023208 0.13561141 0 24 0
-0.76794243 0.7072109 -0.61912692 0 0 0
-0.81996632 0.75512058 -0.62647152 0 1 0
-0.86693013 0.7983703 -0.62671816 0 2 0
-0.92047602 0.84768164 -0.62851703 0 3 0
-0.96626312 0.8898477 -0.62193048 0 4 0
-1.0280944 0.94678921 -0.62233311 0 5 0
-1.0959132 1.0092446 -0.62225378 0 6 0
-1.176415 1.08338 -0.62465936 0 7 0
-1.2615981 1.1618266 -0.6242888 0 8 0
-1.3662437 1.2581965 -0.62751746 0 9 0
-1.4704114 1.3541263 -0.62392128 0 10 0
-1.6091675 1.481909 -0.62731534 0 11 0
-1.7550943 1.6162953 -0.62449175 0 12 0
-1.9347044 1.7817013 -0.62337518 0 13 0
-2.1625168 1.9914975 -0.62489402 0 14 0
-2.4328103 2.2404153 -0.62292731 0 15 0
-2.8033135 2.5816178 -0.62633431 0 16 0
-3.1829245 2.9312079 -0.60809445 0 17 0
-3.3202763 3.0576973 -0.52753437 0 18 0
-3.4455554 3.1730692 -0.43720978 0 19 0
-3.5541646 3.2730892 -0.33778048 0 20 0
-3.6722157 3.3818042 -0.23240878 0 21 0
-3.8067455 3.5056949 -0.12032237 0 22 0
-4.0098481 3.6927354 0.00015562191 0 23 0
-0.78909642 0.70608991 -0.62796921 0 0 0
-0.82891351 0.74171859 -0.62513208 0 1 0
-0.87093115 0.77931631 -0.62148297 0 2 0
-0.92286181 0.82578433 -0.6220116 0 3 0
-0.99589998 0.89113945 -0.63273138 0 4 0
-1.0445361 0.93465942 -0.62412357 0 5 0
-1.1238809 1.0056579 -0.6298961 0 6 0
-1.2046515 1.077932 -0.63139534 0 7 0
-1.2921977 1.1562691 -0.63117635 0 8 0
-1.3840491 1.2384584 -0.62748933 0 9 0
-1.4866626 1.3302779 -0.62267375 0 10 0
-1.6259402 1.4549047 -0.62567163 0 11 0
-1.7764124 1.5895483 -0.62391764 0 12 0
-1.9722632 1.7647972 -0.62727356 0 13 0
-2.1882854 1.9580957 -0.6241774 0 14 0
-2.483675 2.2224128 -0.62774193 0 15 0
-2.839149 2.5404937 -0.62615222 0 16 0
-3.2104115 2.8727024 -0.60542816 0 17 0
-3.3794589 3.0239675 -0.53000623 0 18 0
-3.4821227 3.1158319 -0.43614605 0 19 0
-3.5888274 3.2113121 -0.33667183 0 20 0
-3.7202363 3.328898 -0.23240855 0 21 0
-3.8769815 3.4691548 -0.12096048 0 22 0
-4.0910425 3.6606982 0.00015672347 0 23 0
-0.79479206 0.69096053 -0.62456727 0 0 0
-0.83411592 0.72514713 -0.6211642 0 1 0
-0.88541275 0.76974255 -0.62389088 0 2 0
-0.94089079 0.81797296 -0.62620777 0 3 0
-0.99477232 0.86481535 -0.6240865 0 4 0
-1.0561906 0.91821009 -0.6231705 0 5 0
-1.1320361 0.98414707 -0.62650758 0 6 0
-1.2001987 1.0434049 -0.6211701 0 7 0
-1.2979705 1.1284039 -0.62604284 0 8 0
-1.3929225 1.2109513 -0.62359023 0 9 0
-1.5093523 1.3121707 -0.62424666 0 10 0
-1.6555442 1.4392641 -0.62907159 0 11 0
-1.802912 1.5673798 -0.62528133 0 12 0
-1.9833975 1.7242868 -0.62290144 0 13 0
-2.2196319 1.9296596 -0.62517631 0 14 0
-2.5049796 2.1777294 -0.62518424 0 15 0
-2.8687983 2.4940188 -0.62475425 0 16 0
-3.2807746 2.8521748 -0.61093611 0 17 0
-3.417196 2.9707739 -0.52920157 0 18 0
-3.5301948 3.0690107 -0.43662035 0 19 0
-3.6484437 3.1718116 -0.33797091 0 20 0
-3.7907901 3.2955618 -0.23384535 0 21 0
-3.9370797 3.4227402 -0.12129459 0 22 0
-4.17593 3.6303871 0.00015796858 0 23 0
-0.79716915 0.67323935 -0.61879933 0 0 0
-0.85512531 0.72218549 -0.62904745 0 1 0
-0.89813143 0.75850576 -0.62513876 0 2 0
-0.95184785 0.80387133 -0.6257782 0 3 0
-1.0092068 0.8523131 -0.62542456 0 4 0
-1.0671676 0.9012633 -0.62197214 0 5 0
-1.1416888 0.96419919 -0.62414783 0 6 0
-1.2147123 1.0258702 -0.62101841 0 7 0
-1.3071448 1.103933 -0.62278271 0 8 0
-1.4062872 1.1876625 -0.62189919 0 9 0
-1.5341688 1.2956632 -0.6267761 0 10 0
-1.6756678 1.4151645 -0.62895691 0 11 0
-1.8317578 1.5469884 -0.62754178 0 12 0
-2.0118761 1.699105 -0.62414348 0 13 0
-2.2522426 1.9021037 -0.62662888 0 14 0
-2.5395072 2.1447093 -0.6260758 0 15 0
-2.9120662 2.4593496 -0.62644672 0 16 0
-3.3228989 2.806313 -0.61123776 0 17 0
-3.4626021 2.9242978 -0.52969694 0 18 0
-3.5766711 3.0206335 -0.4369764 0 19 0
-3.7148714 3.1373487 -0.3399297 0 20 0
-3.8507619 3.2521133 -0.23464935 0 21 0
-4.0134921 3.389545 -0.12214151 0 22 0
-4.2632484 3.6004739 0.00015930588 0 23 0
-0.82561815 0.67726123 -0.63329303 0 0 0
-0.86425787 0.70895773 -0.62823641 0 1 0
-0.90772551 0.7446146 -0.62433428 0 2 0
-0.96367747 0.79051238 -0.62605244 0 3 0
-1.0190828 0.83596188 -0.62406576 0 4 0
-1.0821012 0.88765633 -0.62320685 0 5 0
-1.160588 0.95203966 -0.62696588 0 6 0
-1.2466857 1.0226665 -0.62981665 0 7 0
-1.3323407 1.0929298 -0.62726963 0 8 0
-1.42642 1.1701038 -0.62333208 0 9 0
-1.5500771 1.2715408 -0.62577564 0 10 0
-1.692194 1.3881204 -0.62763804 0 11 0
-1.8405982 1.5098577 -0.62310278 0 12 0
-2.0449731 1.677508 -0.62689805 0 13 0
-2.2760963 1.8671002 -0.62576598 0 14 0
-2.5677278 2.1063278 -0.62553632 0 15 0
-2.9307208 2.404094 -0.62299335 0 16 0
-3.3606966 2.7568064 -0.61086947 0 17 0
-3.511673 2.8806536 -0.53084171 0 18 0
-3.6322021 2.9795249 -0.43850556 0 19 0
-3.7485209 3.0749419 -0.33894667 0 20 0
-3.9080615 3.2058144 -0.23532072 0 21 0
-4.0858603 3.3516641 -0.12287131 0 22 0
-4.341135 3.5610681 0.00016029521 0 23 0
-0.81860226 0.65213209 -0.62068802 0 0 0
-0.86571145 0.68966115 -0.62205368 0 1 0
-0.92063737 0.73341739 -0.62593061 0 2 0
-0.97635388 0.77780348 -0.62699085 0 3 0
-1.0447538 0.83229363 -0.63242608 0 4 0
-1.1038425 0.87936604 -0.62841475 0 5 0
-1.1659324 0.92882943 -0.62260717 0 6 0
-1.2401865 0.98798329 -0.6193257 0 7 0
-1.3534553 1.0782179 -0.62988001 0 8 0
-1.4435257 1.1499716 -0.62355036 0 9 0
-1.566043 1.2475739 -0.62494814 0 10 0
-1.7150253 1.3662593 -0.62878847 0 11 0
-1.8604602 1.4821187 -0.62258124 0 12 0
-2.0625405 1.6431042 -0.62500972 0 13 0
-2.2820425 1.8179684 -0.62018317 0 14 0
-2.5938771 2.0663886 -0.62463725 0 15 0
-2.961364 2.3591437 -0.62226546 0 16 0
-3.3786001 2.6915309 -0.60705894 0 17 0
-3.5345278 2.8157494 -0.52815008 0 18 0
-3.6560626 2.912569 -0.43630847 0 19 0
-3.808382 3.0339129 -0.34039792 0 20 0
-3.9743688 3.1661446 -0.23656031 0 21 0
-4.1567998 3.3114767 -0.12356658 0 22 0
-4.4425678 3.5391312 0.00016215348 0 23 0
-0.83310533 0.64441311 -0.62462693 0 0 0
-0.88245112 0.68258244 -0.62699741 0 1 0
-0.92977798 0.71919012 -0.62508231 0 2 0
-0.98309839 0.76043385 -0.62426835 0 3 0
-1.0537448 0.81507933 -0.63074183 0 4 0
-1.1082531 0.85724193 -0.62387645 0 5 0
-1.1815231 0.91391683 -0.62388331 0 6 0
-1.2634255 0.97726887 -0.62388146 0 7 0
-1.3593497 1.0514671 -0.62555498 0 8 0
-1.4672843 1.1349553 -0.62673175 0 9 0
-1.5900024 1.2298785 -0.62742013 0 10 0
-1.7305869 1.3386217 -0.62740475 0 11 0
-1.903272 1.472195 -0.62979168 0 12 0
-2.0912738 1.6176157 -0.62663633 0 13 0
-2.33373 1.8051574 -0.62714398 0 14 0
-2.6455984 2.0463898 -0.62997431 0 15 0
-3.0042393 2.3238013 -0.62422162 0 16 0
-3.4129333 2.6399291 -0.60637641 0 17 0
-3.5652595 2.7577546 -0.5267899 0 18 0
-3.6996477 2.8617046 -0.4365769 0 19 0
-3.84705 2.9757214 -0.34001225 0 20 0
-4.0352283 3.1212788 -0.23749922 0 21 0
-4.2248592 3.2679598 -0.12418655 0 22 0
-4.5192342 3.495661 0.00016310882 0 23 0
-0.84566849 0.63499594 -0.62716746 0 0 0
-0.88829637 0.66700441 -0.62430316 0 1 0
-0.93927211 0.70528108 -0.62461436 0 2 0
-0.99397767 0.74635845 -0.62432903 0 3 0
-1.050336 0.78867686 -0.62188065 0 4 0
-1.1281945 0.84713924 -0.62821198 0 5 0
-1.191569 0.89472586 -0.62236178 0 6 0
-1.283844 0.9640134 -0.62708628 0 7 0
-1.3881874 1.0423629 -0.63189512 0 8 0
-1.4811556 1.1121708 -0.62579298 0 9 0
-1.6107651 1.2094921 -0.62871742 0 10 0
-1.7443113 1.3097694 -0.62551969 0 11 0
-1.9002649 1.4268719 -0.62197477 0 12 0
-2.1120884 1.5859261 -0.6260072 0 13 0
-2.3602655 1.7722774 -0.6273936 0 14 0
-2.6446681 1.9858298 -0.62292057 0 15 0
-3.0442526 2.2858698 -0.62567323 0 16 0
-3.4289491 2.5747309 -0.60261244 0 17 0
-3.6086769 2.7096851 -0.5274204 0 18 0
-3.7259836 2.7977684 -0.43491453 0 19 0
-3.893183 2.923315 -0.34035659 0 20 0
-4.0763717 3.0608678 -0.23731788 0 21 0
-4.3015733 3.2299676 -0.12506974 0 22 0
-4.6000037 3.4540529 0.00016422276 0 23 0
-0.8526299 0.62134111 -0.62567049 0 0 0
-0.89926261 0.65532398 -0.62535399 0 1 0
-0.94637454 0.68965608 -0.62270927 0 2 0
-1.0132028 0.73835611 -0.62970191 0 3 0
-1.0756902 0.78389287 -0.63018447 0 4 0
-1.1367337 0.82837743 -0.62630039 0 5 0
-1.2193472 0.8885808 -0.63016295 0 6 0
-1.2946312 0.94344288 -0.62569529 0 7 0
-1.3898606 1.0128398 -0.62599355 0 8 0
-1.497697 1.0914239 -0.62611723 0 9 0
-1.6240113 1.1834736 -0.62721151 0 10 0
-1.7663001 1.2871643 -0.6267339 0 11 0
-1.9310062 1.4071914 -0.62537998 0 12 0
-2.1245825 1.5482572 -0.62307817 0 13 0
-2.3835657 1.7369872 -0.62691408 0 14 0
-2.6970351 1.9654233 -0.62856442 0 15 0
-3.0780427 2.2430768 -0.62595516 0 16 0
-3.4558885 2.5184262 -0.60095018 0 17 0
-3.6322651 2.6469581 -0.52527672 0 18 0
-3.7541881 2.7358074 -0.43359146 0 19 0
-3.9195991 2.8563483 -0.339057 0 20 0
-4.13028 3.0098789 -0.23792382 0 21 0
-4.375103 3.1882899 -0.12586787 0 22 0
-4.6790023 3.4097519 0.00016528375 0 23 0
-0.85798299 0.60663372 -0.6231631 0 0 0
-0.91569829 0.64744115 -0.63027447 0 1 0
-0.96075451 0.67929798 -0.62570935 0 2 0
-1.0170568 0.71910638 -0.62563616 0 3 0
-1.0758206 0.76065499 -0.62381858 0 4 0
-1.1544913 0.81627887 -0.62958241 0 5 0
-1.2188286 0.86176831 -0.6234563 0 6 0
-1.3131521 0.92845941 -0.62815922 0 7 0
-1.404367 0.99295253 -0.62606174 0 8 0
-1.5093116 1.0671532 -0.62452316 0 9 0
-1.6365036 1.1570839 -0.62557578 0 10 0
-1.777671 1.2568958 -0.62432116 0 11 0
-1.9569057 1.383623 -0.62728971 0 12 0
-2.1555078 1.5240439 -0.62568611 0 13 0
-2.4056025 1.7008724 -0.62624276 0 14 0
-2.6983273 1.9078424 -0.62243748 0 15 0
-3.099617 2.1915729 -0.6238994 0 16 0
-3.5018649 2.4759808 -0.60272068 0 17 0
-3.6533859 2.5831132 -0.52293068 0 18 0
-3.7802815 2.6728344 -0.43214232 0 19 0
-3.9491093 2.7922034 -0.3381179 0 20 0
-4.1948133 2.9659274 -0.23917125 0 21 0
-4.4395227 3.1389482 -0.12641564 0 22 0
-4.7575498 3.3638082 0.00016634057 0 23 0
-0.87902302 0.60282737 -0.63211292 0 0 0
-0.91868865 0.63002974 -0.62606162 0 1 0
-0.96685129 0.66305935 -0.62343514 0 2 0
-1.0265483 0.7039991 -0.62521207 0 3 0
-1.0836899 0.74318635 -0.62214965 0 4 0
-1.1634253 0.79786837 -0.62816226 0 5 0
-1.2295989 0.84324968 -0.62272781 0 6 0
-1.3211184 0.90601301 -0.62570244 0 7 0
-1.4277714 0.97915494 -0.63018292 0 8 0
-1.5427325 1.0579944 -0.63202125 0 9 0
-1.6607394 1.1389226 -0.62854421 0 10 0
-1.8059809 1.2385281 -0.62797338 0 11 0
-1.9730467 1.3531005 -0.62619132 0 12 0
-2.1871548 1.4999342 -0.62857598 0 13 0
-2.4163439 1.6571105 -0.62280059 0 14 0
-2.7341192 1.8750384 -0.62443894 0 15 0
-3.1349425 2.14992 -0.62475181 0 16 0
-3.5528724 2.4365332 -0.60543531 0 17 0
-3.6718822 2.5181491 -0.52036572 0 18 0
-3.8068588 2.6107152 -0.4308646 0 19 0
-3.9839075 2.7321336 -0.33771443 0 20 0
-4.2391162 2.9071541 -0.23930022 0 21 0
-4.4966002 3.0837345 -0.12677109 0 22 0
-4.7846975 3.2813096 0.00016563066 0 23 0
-5.4523072 3.7391512 0.15409268 0 24 0
-0.87784606 0.58372533 -0.62519431 0 0 0
-0.9260757 0.61579573 -0.62502509 0 1 0
-0.97964537 0.65141696 -0.62560856 0 2 0
-1.0264204 0.68252009 -0.61912084 0 3 0
-1.0919247 0.72607726 -0.62084723 0 4 0
-1.1835119 0.78697836 -0.63286072 0 5 0
-1.245604 0.82826668 -0.62476546 0 6 0
-1.334746 0.88754177 -0.62607586 0 7 0
-1.4274881 0.94921076 -0.62399721 0 8 0
-1.5419499 1.0253223 -0.62562418 0 9 0
-1.6710263 1.1111521 -0.62635398 0 10 0
-1.812946 1.2055217 -0.6243313 0 11 0
-1.987914 1.321867 -0.62484092 0 12 0
-2.1982892 1.4617563 -0.6256988 0 13 0
-2.4522557 1.6306319 -0.6259768 0 14 0
-2.7633922 1.8375226 -0.62505364 0 15 0
-3.1604958 2.1015773 -0.62378561 0 16 0
-3.5938683 2.3897493 -0.60653025 0 17 0
-3.705421 2.4639263 -0.52006751 0 18 0
-3.8480701 2.5587811 -0.4313395 0 19 0
-3.9926581 2.6549253 -0.33520058 0 20 0
-4.2579579 2.8313367 -0.23805173 0 21 0
-4.5252876 3.0090981 -0.12635264 0 22 0
-4.8039556 3.1943991 0.00016469766 0 23 0
-5.3575625 3.562521 0.14995854 0 24 0
-0.87623644 0.56473798 -0.61822772 0 0 0
-0.93943924 0.60547245 -0.62813091 0 1 0
-0.98877639 0.63727045 -0.62555057 0 2 0
-1.0513654 0.67760932 -0.62825274 0 3 0
-1.1102175 0.71553975 -0.62536079 0 4 0
-1.1869377 0.76498628 -0.62877315 0 5 0
-1.2704637 0.81881905 -0.63129127 0 6 0
-1.3414769 0.86458743 -0.62336451 0 7 0
-1.4405872 0.92846435 -0.62385005 0 8 0
-1.5551596 1.0023067 -0.62509888 0 9 0
-1.6795455 1.082474 -0.6236757 0 10 0
-1.8312604 1.1802548 -0.62475663 0 11 0
-2.0177054 1.3004194 -0.62829006 0 12 0
-2.2212758 1.4316213 -0.6263448 0 13 0
-2.4759948 1.5957888 -0.62614185 0 14 0
-2.7793615 1.79131 -0.62280244 0 15 0
-3.2018349 2.0635958 -0.62605083 0 16 0
-3.5985243 2.3192637 -0.60165191 0 17 0
-3.7334869 2.4062476 -0.5191195 0 18 0
-3.8643215 2.490571 -0.42912126 0 19 0
-4.0353928 2.6008272 -0.33562857 0 20 0
-4.2778101 2.7570662 -0.23693106 0 21 0
-4.5491896 2.9319713 -0.12583536 0 22 0
-4.8261018 3.1104424 0.00016391378 0 23 0
-5.2784257 3.401967 0.14636555 0 24 0
-0.89397717 0.55822635 -0.62504321 0 0 0
-0.94453317 0.58979505 -0.62582815 0 1 0
-0.98889297 0.6174947 -0.61996913 0 2 0
-1.0536704 0.65794361 -0.62393868 0 3 0
-1.1224808 0.70091087 -0.62655312 0 4 0
-1.1882188 0.74195981 -0.62376201 0 5 0
-1.2665156 0.79085064 -0.62364084 0 6 0
-1.3515344 0.84393889 -0.622361 0 7 0
-1.4738543 0.92031914 -0.63248706 0 8 0
-1.5683583 0.97933036 -0.62470579 0 9 0
-1.7090014 1.0671521 -0.62887734 0 10 0
-1.8458782 1.1526222 -0.62405127 0 11 0
-2.0254121 1.2647285 -0.62498879 0 12 0
-2.2403514 1.3989432 -0.6260134 0 13 0
-2.4887862 1.5540733 -0.62368751 0 14 0
-2.8144543 1.7574303 -0.62496531 0 15 0
-3.2317379 2.0179946 -0.62618583 0 16 0
-3.6159401 2.2579024 -0.59909892 0 17 0
-3.7545483 2.3444533 -0.51732904 0 18 0
-3.8770287 2.420934 -0.42664066 0 19 0
-4.0564599 2.5329762 -0.3343311 0 20 0
-4.3107777 2.6917799 -0.2365988 0 21 0
-4.5614657 2.8483171 -0.12503441 0 22 0
-4.8467822 3.0264773 0.00016312815 0 23 0
-5.2520432 3.2795346 0.14431757 0 24 0
-5.5801263 3.4843996 0.30664396 0 25 0
-0.90374708 0.5465067 -0.62634069 0 0 0
-0.95072049 0.57491207 -0.62441146 0 1 0
-1.0013535 0.60553044 -0.62228352 0 2 0
-1.0671653 0.64532763 -0.62639588 0 3 0
-1.1327497 0.68498737 -0.6267482 0 4 0
-1.1910509 0.7202428 -0.61977339 0 5 0
-1.2793273 0.77362454 -0.62443286 0 6 0
-1.3707848 0.82892996 -0.62569785 0 7 0
-1.4757639 0.89241213 -0.62776071 0 8 0
-1.5802329 0.95558572 -0.6239236 0 9 0
-1.7119533 1.0352387 -0.62444693 0 10 0
-1.8756893 1.1342518 -0.62857664 0 11 0
-2.0380328 1.2324228 -0.62337601 0 12 0
-2.268352 1.3716997 -0.62828696 0 13 0
-2.515399 1.5210921 -0.62483656 0 14 0
-2.8414762 1.7182747 -0.62544024 0 15 0
-3.2561152 1.9690119 -0.62538433 0 16 0
-3.6343193 2.1977165 -0.59687096 0 17 0
-3.7632985 2.2757118 -0.51399386 0 18 0
-3.9017732 2.3594491 -0.42560366 0 19 0
-4.0683122 2.4601572 -0.33237162 0 20 0
-4.3204727 2.6126418 -0.23505436 0 21 0
-4.5841942 2.7721171 -0.12455702 0 22 0
-4.8822217 2.952338 0.00016288197 0 23 0
-5.2478361 3.1734293 0.14293917 0 24 0
-5.5348392 3.3469837 0.3014918 0 25 0
-0.91048807 0.53293794 -0.62566173 0 0 0
-0.95758438 0.56050497 -0.62358648 0 1 0
-1.0212152 0.59775013 -0.62924504 0 2 0
-1.0747225 0.62906969 -0.62548262 0 3 0
-1.1319859 0.66258782 -0.62101454 0 4 0
-1.2109499 0.708808 -0.62478471 0 5 0
-1.2968061 0.75906235 -0.6275968 0 6 0
-1.3712779 0.80265307 -0.6206153 0 7 0
-1.4787904 0.86558366 -0.62371397 0 8 0
-1.5926257 0.93221509 -0.62348455 0 9 0
-1.721108 1.0074198 -0.62246269 0 10 0
-1.8868779 1.1044503 -0.62696421 0 11 0
-2.0626099 1.207312 -0.62554377 0 12 0
-2.2797003 1.3343819 -0.62607586 0 13 0
-2.536788 1.4848636 -0.62480623 0 14 0
-2.8560958 1.6717647 -0.62332737 0 15 0
-3.2915354 1.9266416 -0.62682652 0 16 0
-3.6498048 2.1363482 -0.59433138 0 17 0
-3.7618663 2.2019415 -0.50944138 0 18 0
-3.9059253 2.2862637 -0.42244372 0 19 0
-4.0883431 2.3930387 -0.33117583 0 20 0
-4.3340993 2.5368879 -0.23379622 0 21 0
-4.608366 2.6974249 -0.12415203 0 22 0
-4.8896561 2.8620732 0.00016174671 0 23 0
-5.2743077 3.0872221 0.14244202 0 24 0
-5.5449018 3.2456093 0.29947871 0 25 0
-0.90956271 0.51506209 -0.61989635 0 0 0
-0.96863556 0.54851353 -0.62560624 0 1 0
-1.026413 0.58123136 -0.62725723 0 2 0
-1.0761418 0.60939157 -0.62116855 0 3 0
-1.1480958 0.65013725 -0.62468332 0 4 0
-1.2197101 0.69069058 -0.62413979 0 5 0
-1.3026394 0.73765135 -0.62524605 0 6 0
-1.4015632 0.79366934 -0.62911606 0 7 0
-1.5013351 0.85016763 -0.62802589 0 8 0
-1.6176928 0.91605806 -0.6281004 0 9 0
-1.73595 0.98302406 -0.62267798 0 10 0
-1.9015023 1.0767721 -0.62663817 0 11 0
-2.0838983 1.1800584 -0.62681323 0 12 0
-2.283201 1.2929183 -0.6218912 0 13 0
-2.5734692 1.4572898 -0.62863886 0 14 0
-2.8807309 1.6312842 -0.62354416 0 15 0
-3.3052893 1.8717008 -0.62427992 0 16 0
-3.6542504 2.0693085 -0.59017169 0 17 0
-3.7894998 2.1458967 -0.50897193 0 18 0
-3.9073677 2.2126424 -0.41913149 0 19 0
-4.1116796 2.3283389 -0.33033273 0 20 0
-4.3513284 2.464046 -0.23279926 0 21 0
-4.6304822 2.6221235 -0.12372405 0 22 0
-4.9169583 2.7843475 0.00016131498 0 23 0
-5.2860818 2.9933727 0.14158836 0 24 0
-5.5624294 3.1498613 0.2979598 0 25 0
-0.92242104 0.50504678 -0.62366903 0 0 0
-0.98091704 0.53707469 -0.62850904 0 1 0
-1.0286368 0.56320238 -0.62362599 0 2 0
-1.0942714 0.59913886 -0.62661904 0 3 0
-1.1684787 0.63976908 -0.63072664 0 4 0
-1.2252927 0.67087603 -0.62201905 0 5 0
-1.320617 0.72306824 -0.62884295 0 6 0
-1.4153562 0.77494013 -0.63026381 0 7 0
-1.49898 0.82072616 -0.62206292 0 8 0
-1.6263956 0.8904891 -0.62646633 0 9 0
-1.7535335 0.96010005 -0.62399191 0 10 0
-1.9231846 1.0529881 -0.62875229 0 11 0
-2.0890508 1.1438036 -0.62337476 0 12 0
-2.3113887 1.2655387 -0.62457103 0 13 0
-2.5772085 1.4110811 -0.62455451 0 14 0
-2.9152737 1.5961796 -0.62601161 0 15 0
-3.3453314 1.8316462 -0.62682688 0 16 0
-3.684514 2.0173564 -0.59033543 0 17 0
-3.7911944 2.0757666 -0.50515723 0 18 0
-3.9316337 2.1526601 -0.41838646 0 19 0
-4.1220078 2.2568944 -0.32853356 0 20 0
-4.3757129 2.3958037 -0.23224539 0 21 0
-4.6225886 2.5309739 -0.12253261 0 22 0
-4.9447417 2.70736 0.00016093865 0 23 0
-5.298388 2.9009895 0.14079136 0 24 0
-5.5918131 3.0616467 0.29715595 0 25 0
-0.93433124 0.49432042 -0.62687367 0 0 0
-0.9832741 0.52021432 -0.6251843 0 1 0
-1.0386839 0.54952961 -0.62488443 0 2 0
-1.1034112 0.58377445 -0.62700373 0 3 0
-1.1626242 0.61510193 -0.62275028 0 4 0
-1.2448305 0.65859425 -0.62708771 0 5 0
-1.3345168 0.7060439 -0.6305849 0 6 0
-1.4126433 0.74737787 -0.62422818 0 7 0
-1.5216389 0.8050434 -0.62662005 0 8 0
-1.6213059 0.8577736 -0.61971325 0 9 0
-1.7713927 0.93717897 -0.6255095 0 10 0
-1.9343235 1.0233798 -0.62754071 0 11 0
-2.1122994 1.1175404 -0.62547493 0 12 0
-2.3195775 1.2272035 -0.62197351 0 13 0
-2.6112111 1.3814962 -0.62793833 0 14 0
-2.9377534 1.5542578 -0.62599754 0 15 0
-3.3517206 1.7732726 -0.62320435 0 16 0
-3.6875174 1.9509305 -0.58628249 0 17 0
-3.8134499 2.0175567 -0.50422311 0 18 0
-3.9304159 2.0794392 -0.41504702 0 19 0
-4.1370659 2.1887701 -0.32720321 0 20 0
-4.3808761 2.3177612 -0.230735 0 21 0
-4.6558962 2.4632642 -0.12246838 0 22 0
-4.958581 2.6234038 0.00016015054 0 23 0
-5.310492 2.8095868 0.14003004 0 24 0
-5.6259608 2.9764898 0.29667616 0 25 0
-0.94469482 0.48262677 -0.62912768 0 0 0
-0.98713076 0.5043065 -0.62298304 0 1 0
-1.0496955 0.53626966 -0.62682712 0 2 0
-1.1141009 0.56917316 -0.62838429 0 3 0
-1.1804736 0.6030817 -0.62762308 0 4 0
-1.2441274 0.63560122 -0.62208682 0 5 0
-1.3310951 0.68003142 -0.62430483 0 6 0
-1.4249164 0.72796291 -0.62498319 0 7 0
-1.5285157 0.78088981 -0.62478507 0 8 0
-1.6419059 0.83881879 -0.62293416 0 9 0
-1.7759923 0.90732098 -0.62248403 0 10 0
-1.9285824 0.9852764 -0.62103927 0 11 0
-2.1234179 1.0848142 -0.62410539 0 12 0
-2.3510239 1.2010938 -0.62573171 0 13 0
-2.6172159 1.3370862 -0.62471598 0 14 0
-2.9529629 1.508613 -0.62457317 0 15 0
-3.3925598 1.7331948 -0.62612098 0 16 0
-3.6917188 1.8860296 -0.58259875 0 17 0
-3.799336 1.9410092 -0.4986324 0 18 0
-3.9576209 2.021874 -0.4148213 0 19 0
-4.1347332 2.1123571 -0.32459414 0 20 0
-4.3896303 2.2425795 -0.22948195 0 21 0
-4.6694345 2.3855262 -0.12191386 0 22 0
-4.9768214 2.5425644 0.00015954791 0 23 0
-5.3506527 2.7335477 0.14004296 0 24 0
-5.6322384 2.8774045 0.29480514 0 25 0
-0.94217485 0.46445724 -0.62295836 0 0 0
-0.9848609 0.48549989 -0.61710167 0 1 0
-1.0515397 0.51837009 -0.62343383 0 2 0
-1.1093367 0.54686189 -0.62121862 0 3 0
-1.1985434 0.59083742 -0.63266921 0 4 0
-1.2497973 0.61610377 -0.62044889 0 5 0
-1.3424575 0.66178173 -0.62512726 0 6 0
-1.43919 0.70946729 -0.62672549 0 7 0
-1.5507966 0.76448518 -0.62935525 0 8 0
-1.660744 0.81868517 -0.62557131 0 9 0
-1.7965833 0.88564897 -0.62519395 0 10 0
-1.9556094 0.9640429 -0.62523496 0 11 0
-2.1504397 1.0600871 -0.62752354 0 12 0
-2.3652446 1.1659778 -0.62501067 0 13 0
-2.6487272 1.3057243 -0.62771225 0 14 0
-2.987833 1.4728909 -0.62742519 0 15 0
-3.4048462 1.6784629 -0.6238907 0 16 0
-3.7098284 1.8288078 -0.58126616 0 17 0
-3.8241732 1.8851756 -0.49829969 0 18 0
-3.9715707 1.9578371 -0.41330385 0 19 0
-4.1516538 2.0466115 -0.32358965 0 20 0
-4.3921537 2.165169 -0.22797036 0 21 0
-4.6611214 2.2977598 -0.12082573 0 22 0
-4.9915028 2.4606256 0.0001588732 0 23 0
-5.3834991 2.6538653 0.13989411 0 24 0
-5.6790481 2.7995601 0.29512763 0 25 0
-0.9492265 0.45116332 -0.62328726 0 0 0
-1.0095656 0.47984225 -0.62821341 0 1 0
-1.0550128 0.50144315 -0.62117404 0 2 0
-1.1200722 0.53236562 -0.62289947 0 3 0
-1.2040623 0.57228571 -0.63119382 0 4 0
-1.2594868 0.5986287 -0.62094176 0 5 0
-1.3525755 0.64287347 -0.62548989 0 6 0
-1.4488236 0.68861967 -0.6265642 0 7 0
-1.5445045 0.73409647 -0.62247378 0 8 0
-1.6802056 0.79859459 -0.62853205 0 9 0
-1.805308 0.85805523 -0.62389225 0 10 0
-1.9666498 0.93474025 -0.62442315 0 11 0
-2.1528852 1.0232573 -0.62389928 0 12 0
-2.3861866 1.1341443 -0.62619072 0 13 0
-2.63796 1.2538111 -0.62084389 0 14 0
-2.9966722 1.4243056 -0.62493622 0 15 0
-3.4364057 1.633309 -0.62532574 0 16 0
-3.724637 1.7703042 -0.57955682 0 17 0
-3.8510172 1.8303722 -0.49833268 0 18 0
-3.9729338 1.8883185 -0.41059089 0 19 0
-4.17383 1.9838039 -0.32307187 0 20 0
-4.4034696 2.0929503 -0.22697952 0 21 0
-4.67626 2.2226067 -0.12038117 0 22 0
-5.0255513 2.3886232 0.00015885245 0 23 0
-5.4273081 2.5795765 0.14005871 0 24 0
-0.96427315 0.44150922 -0.62895328 0 0 0
-1.0202186 0.46712482 -0.63061726 0 1 0
-1.0663481 0.48824599 -0.62366945 0 2 0
-1.1421881 0.52297062 -0.63097107 0 3 0
-1.1968832 0.54801375 -0.6232546 0 4 0
-1.2735935 0.58313692 -0.62371767 0 5 0
-1.357203 0.62141895 -0.62345266 0 6 0
-1.4615901 0.66921443 -0.62787849 0 7 0
-1.5649794 0.71655303 -0.62652797 0 8 0
-1.6896544 0.77363759 -0.62785995 0 9 0
-1.8160031 0.83148861 -0.62341148 0 10 0
-1.9659475 0.90014327 -0.6200459 0 11 0
-2.1712608 0.99414951 -0.62503678 0 12 0
-2.3827019 1.0909615 -0.62111485 0 13 0
-2.6802597 1.2272034 -0.62660086 0 14 0
-3.0309589 1.3877772 -0.62787974 0 15 0
-3.4548373 1.5818572 -0.62449563 0 16 0
-3.7352719 1.7102592 -0.5773434 0 17 0
-3.8505316 1.7630328 -0.49495366 0 18 0
-3.9866519 1.8253579 -0.40926653 0 19 0
-4.1681075 1.9084405 -0.32048166 0 20 0
-4.399231 2.0142641 -0.22525185 0 21 0
-4.7016263 2.1527212 -0.12022864 0 22 0
-5.0427399 2.3089061 0.00015833491 0 23 0
-5.4790974 2.5086999 0.14045416 0 24 0
-1.0214547 0.45012027 -0.62733459 0 1 0
-1.0822784 0.47692323 -0.62892962 0 2 0
-1.1443226 0.504264 -0.62809867 0 3 0
-1.2029179 0.53008497 -0.62238234 0 4 0
-1.2842219 0.56591284 -0.62489176 0 5 0
-1.3777022 0.60710645 -0.62881309 0 6 0
-1.4623283 0.64439827 -0.62416935 0 7 0
-1.5727216 0.69304484 -0.62559205 0 8 0
-1.6985633 0.74849898 -0.62712514 0 9 0
-1.8355187 0.80885059 -0.62607241 0 10 0
-1.9990593 0.88091737 -0.62644815 0 11 0
-2.1801682 0.96072578 -0.62357837 0 12 0
-2.4076824 1.0609835 -0.623604 0 13 0
-2.6947663 1.1874918 -0.62595457 0 14 0
-3.0525198 1.3451415 -0.62829334 0 15 0
-3.496532 1.5408025 -0.62798148 0 16 0
-3.7459178 1.6506983 -0.57527798 0 17 0
-3.8675106 1.7042801 -0.49394989 0 18 0
-4.0040112 1.7644314 -0.40841413 0 19 0
-4.1893969 1.8461245 -0.32005405 0 20 0
-4.4316349 1.9528705 -0.2254567 0 21 0
-4.7062368 2.0738783 -0.11957521 0 22 0
-5.1025267 2.2485096 0.00015918529 0 23 0
-5.5284472 2.4361982 0.14081091 0 24 0
-1.0219651 0.43298632 -0.62377793 0 1 0
-1.0837212 0.45915112 -0.62588471 0 2 0
-1.1470746 0.4859927 -0.62572694 0 3 0
-1.2133152 0.51405758 -0.623891 0 4 0
-1.2846677 0.54428816 -0.62125415 0 5 0
-1.3748677 0.58250415 -0.62365001 0 6 0
-1.4734085 0.62425387 -0.6250208 0 7 0
-1.5726831 0.66631454 -0.6217193 0 8 0
-1.7173771 0.72761852 -0.63016158 0 9 0
-1.8439775 0.78125662 -0.62507933 0 10 0
-1.9988502 0.8468731 -0.62252027 0 11 0
-2.202893 0.93332195 -0.62619311 0 12 0
-2.4353819 1.0318229 -0.62688887 0 13 0
-2.7055864 1.1463032 -0.62459266 0 14 0
-3.061512 1.2971017 -0.62625861 0 15 0
-3.4862702 1.4770634 -0.62227762 0 16 0
-3.7641902 1.5948126 -0.57451963 0 17 0
-3.8803113 1.6440108 -0.49252895 0 18 0
-4.0114312 1.6995637 -0.40664798 0 19 0
-4.2047081 1.7814513 -0.31924307 0 20 0
-4.4366364 1.8797146 -0.22431938 0 21 0
-4.7273827 2.0028982 -0.11937185 0 22 0
-5.2091522 2.2070143 0.00016150966 0 23 0
-5.6393228 2.3892691 0.14274926 0 24 0
-1.0865945 0.44213429 -0.62382537 0 2 0
-1.1400383 0.46388051 -0.61820334 0 3 0
-1.228213 0.49975872 -0.62780887 0 4 0
-1.2944669 0.52671742 -0.6222834 0 5 0
-1.3762022 0.55997545 -0.62055606 0 6 0
-1.4864668 0.60484201 -0.62682348 0 7 0
-1.6010517 0.65146649 -0.62918341 0 8 0
-1.7226133 0.70092982 -0.6283372 0 9 0
-1.8556808 0.75507486 -0.62531888 0 10 0
-2.0132287 0.81918097 -0.62328273 0 11 0
-2.2098849 0.89920014 -0.62445801 0 12 0
-2.4460964 0.99531448 -0.62591571 0 13 0
-2.7230923 1.1080238 -0.62490869 0 14 0
-3.0748022 1.2511343 -0.62524998 0 15 0
-3.5201118 1.4323304 -0.62459475 0 16 0
-3.7960362 1.5446037 -0.57594687 0 17 0
-3.9154336 1.5931864 -0.49404192 0 18 0
-4.0402045 1.6439556 -0.40713772 0 19 0
-4.2322016 1.722079 -0.31942633 0 20 0
-4.4723368 1.8197898 -0.22478442 0 21 0
-4.770185 1.940984 -0.11973886 0 22 0
-5.3043361 2.1583295 0.00016348624 0 23 0
-5.7972441 2.3588934 0.14587715 0 24 0
-1.0971178 0.42821866 -0.62628388 0 2 0
-1.1570256 0.45160142 -0.62384588 0 3 0
-1.2303574 0.48022375 -0.62532747 0 4 0
-1.3080531 0.51054937 -0.62523758 0 5 0
-1.3994039 0.54620475 -0.62742853 0 6 0
-1.4954612 0.58369708 -0.62702906 0 7 0
-1.6026577 0.62553722 -0.62623179 0 8 0
-1.7329626 0.67639685 -0.62851644 0 9 0
-1.880495 0.73398054 -0.63007593 0 10 0
-2.015027 0.78649008 -0.62029076 0 11 0
-2.2342608 0.87205976 -0.62775463 0 12 0
-2.4521577 0.9571076 -0.62389725 0 13 0
-2.7623563 1.0781819 -0.6303131 0 14 0
-3.1030004 1.2111396 -0.62739456 0 15 0
-3.54866 1.3850861 -0.62607837 0 16 0
-3.811981 1.4878635 -0.57507598 0 17 0
-3.9256546 1.5322317 -0.49251384 0 18 0
-4.090035 1.5963914 -0.40981463 0 19 0
-4.2744069 1.668354 -0.32077655 0 20 0
-4.5090847 1.7599517 -0.22534218 0 21 0
-4.8778629 1.9038904 -0.12174521 0 22 0
-5.4387336 2.1228051 0.00016667497 0 23 0
-1.0462384 0.39119902 -0.62775582 0 1 0
-1.0947615 0.40934232 -0.62153053 0 2 0
-1.1538426 0.43143329 -0.61873668 0 3 0
-1.2288514 0.45947987 -0.62115586 0 4 0
-1.3177794 0.49273095 -0.62645137 0 5 0
-1.3862597 0.51833636 -0.61814553 0 6 0
-1.4980978 0.56015378 -0.62470877 0 7 0
-1.6051811 0.60019332 -0.62379706 0 8 0
-1.7329757 0.64797699 -0.62509334 0 9 0
-1.8741465 0.70076209 -0.62452406 0 10 0
-2.0389707 0.76239157 -0.62423819 0 11 0
-2.2427139 0.83857322 -0.62669307 0 12 0
-2.4632957 0.92105091 -0.62331295 0 13 0
-2.7439876 1.0260044 -0.62270701 0 14 0
-3.1134303 1.1641427 -0.6260702 0 15 0
-3.567189 1.3338077 -0.62591505 0 16 0
-3.8240073 1.4298346 -0.573744 0 17 0
-3.9549768 1.4788054 -0.49348646 0 18 0
-4.1001081 1.5330715 -0.40858337 0 19 0
-4.2851558 1.6022627 -0.31982937 0 20 0
-4.5618219 1.705711 -0.22673441 0 21 0
-4.9703341 1.8584577 -0.12337662 0 22 0
-5.5836387 2.0877783 0.00017018249 0 23 0
-1.0666095 0.38150731 -0.63663703 0 1 0
-1.1049534 0.39522225 -0.6240412 0 2 0
-1.1674951 0.41759229 -0.62278873 0 3 0
-1.2408859 0.44384286 -0.62396377 0 4 0
-1.3215084 0.47268012 -0.62494373 0 5 0
-1.4140186 0.50576937 -0.62723118 0 6 0
-1.5035734 0.53780156 -0.62371826 0 7 0
-1.6173272 0.5784893 -0.62523538 0 8 0
-1.7357036 0.62083036 -0.62280816 0 9 0
-1.8940797 0.67747867 -0.62787074 0 10 0
-2.05426 0.73477238 -0.62563521 0 11 0
-2.2520967 0.80553502 -0.6260289 0 12 0
-2.4777505 0.8862474 -0.62369686 0 13 0
-2.7600117 0.98720717 -0.62307292 0 14 0
-3.1292033 1.1192605 -0.6259563 0 15 0
-3.5947526 1.2857792 -0.62745798 0 16 0
-3.8522427 1.3778789 -0.57496244 0 17 0
-3.9769824 1.4224961 -0.49364111 0 18 0
-4.1384506 1.4802505 -0.4102509 0 19 0
-4.340445 1.5525001 -0.3222644 0 20 0
-4.6226463 1.6534386 -0.22855784 0 21 0
-5.1289778 1.8345443 -0.12664978 0 22 0
-5.7749662 2.065603 0.00017509484 0 23 0
-1.0524982 0.35955426 -0.62507844 0 1 0
-1.1190357 0.38228479 -0.62883973 0 2 0
-1.1770115 0.40209046 -0.62473106 0 3 0
-1.2542704 0.42848364 -0.62754583 0 4 0
-1.3313506 0.45481575 -0.62645537 0 5 0
-1.424504 0.48663881 -0.62872815 0 6 0
-1.5227389 0.52019781 -0.62851548 0 7 0
-1.6253837 0.55526328 -0.62521338 0 8 0
-1.7522845 0.59861511 -0.62561923 0 9 0
-1.902186 0.64982444 -0.62741041 0 10 0
-2.0533636 0.70146966 -0.62224054 0 11 0
-2.2750812 0.7772128 -0.6292612 0 12 0
-2.4914978 0.85114497 -0.62402672 0 13 0
-2.7858105 0.95168811 -0.62575775 0 14 0
-3.1440136 1.0740573 -0.62577957 0 15 0
-3.5994251 1.229635 -0.62513739 0 16 0
-3.867063 1.3210653 -0.57429332 0 17 0
-4.0083447 1.3693299 -0.4950504 0 18 0
-4.1563387 1.4198877 -0.40996745 0 19 0
-4.3933597 1.5008588 -0.32456493 0 20 0
-4.711884 1.6096729 -0.23180711 0 21 0
-5.4135213 1.8493661 -0.13300875 0 22 0
-1.0582302 0.34468004 -0.62548852 0 1 0
-1.107462 0.36071557 -0.61937106 0 2 0
-1.1688281 0.38070336 -0.617432 0 3 0
-1.2577564 0.40966848 -0.62629193 0 4 0
-1.3580005 0.44231939 -0.6359511 0 5 0
-1.4211735 0.46289566 -0.62426984 0 6 0
-1.5267726 0.49729076 -0.62717819 0 7 0
-1.6421099 0.53485769 -0.62863797 0 8 0
-1.7534522 0.57112342 -0.62305367 0 9 0
-1.9144951 0.6235773 -0.62846208 0 10 0
-2.078362 0.67695099 -0.6268155 0 11 0
-2.2643175 0.7375192 -0.62330043 0 12 0
-2.5028734 0.81522018 -0.62388951 0 13 0
-2.8045437 0.91347831 -0.62696451 0 14 0
-3.1645868 1.0307492 -0.62687361 0 15 0
-3.6152365 1.1775321 -0.62489223 0 16 0
-3.9121265 1.2742332 -0.57821786 0 17 0
-4.0562406 1.3211731 -0.49857917 0 18 0
-4.2168293 1.373479 -0.41395253 0 19 0
-4.4275446 1.442112 -0.32553211 0 20 0
-4.8390656 1.5761499 -0.23692983 0 21 0
-5.6137319 1.8284694 -0.13727078 0 22 0
-1.0531605 0.32643259 -0.61966681 0 1 0
-1.1336716 0.35138741 -0.6311518 0 2 0
-1.1886075 0.36841506 -0.6250307 0 3 0
-1.262858 0.39142939 -0.62597835 0 4 0
-1.3321458 0.41290551 -0.62101197 0 5 0
-1.4318489 0.44380903 -0.62610465 0 6 0
-1.5446156 0.47876164 -0.63162816 0 7 0
-1.64489 0.50984216 -0.62684435 0 8 0
-1.7657698 0.54730952 -0.62458289 0 9 0
-1.9187075 0.59471339 -0.62698632 0 10 0
-2.0944276 0.64917874 -0.62879395 0 11 0
-2.2712307 0.70397979 -0.62236601 0 12 0
-2.5206959 0.78130281 -0.62548041 0 13 0
-2.8120785 0.87161839 -0.62579584 0 14 0
-3.1763496 0.98452604 -0.62634808 0 15 0
-3.6443026 1.1295706 -0.62705743 0 16 0
-3.90622 1.2107532 -0.57472456 0 17 0
-4.0540986 1.2565891 -0.49605432 0 18 0
-4.2517509 1.3178523 -0.4154864 0 19 0
-4.5107379 1.3981267 -0.33014366 0 20 0
-5.0112267 1.5532558 -0.24424559 0 21 0
-5.9574437 1.8465407 -0.1450143 0 22 0
-1.0595269 0.31185681 -0.62072271 0 1 0
-1.1334116 0.33360374 -0.62828428 0 2 0
-1.1769474 0.34641787 -0.61622876 0 3 0
-1.2581031 0.37030494 -0.62093055 0 4 0
-1.3541191 0.39856589 -0.62853158 0 5 0
-1.4355229 0.42252594 -0.62500262 0 6 0
-1.5451485 0.45479268 -0.62911963 0 7 0
-1.6475719 0.48493958 -0.62515724 0 8 0
-1.7742196 0.52221656 -0.6248638 0 9 0
-1.9130325 0.56307417 -0.62243444 0 10 0
-2.0892766 0.61494911 -0.62454093 0 11 0
-2.2919455 0.67460185 -0.62533236 0 12 0
-2.5256824 0.74339908 -0.62401348 0 13 0
-2.8258493 0.8317489 -0.62614679 0 14 0
-3.1901233 0.93896782 -0.62634981 0 15 0
-3.6582212 1.0767459 -0.62673628 0 16 0
-3.9280343 1.1561615 -0.57544035 0 17 0
-4.0748296 1.1993687 -0.49643952 0 18 0
-4.2953444 1.2642741 -0.41793519 0 19 0
-4.5815468 1.3485137 -0.33387926 0 20 0
-5.4273677 1.5974691 -0.26338673 0 21 0
-1.0569627 0.29473159 -0.61668587 0 1 0
-1.1286172 0.31471226 -0.62306571 0 2 0
-1.1992515 0.33440852 -0.62533659 0 3 0
-1.2756716 0.35571805 -0.62702423 0 4 0
-1.3654799 0.38076088 -0.63121045 0 5 0
-1.4435555 0.4025321 -0.62592727 0 6 0
-1.5445591 0.43069673 -0.62630552 0 7 0
-1.6541464 0.46125489 -0.62508273 0 8 0
-1.773163 0.49444237 -0.62193543 0 9 0
-1.9314483 0.53857988 -0.62585396 0 10 0
-2.1077998 0.58775508 -0.62749892 0 11 0
-2.2859781 0.63743967 -0.62115115 0 12 0
-2.5488091 0.71072948 -0.62714964 0 13 0
-2.8267498 0.78823262 -0.62378258 0 14 0
-3.1945345 0.89078856 -0.62464851 0 15 0
-3.6551032 1.019217 -0.62363881 0 16 0
-3.9681246 1.1065023 -0.57893389 0 17 0
-4.1589036 1.1597005 -0.50460827 0 18 0
-4.3518066 1.2134911 -0.42169571 0 19 0
-4.6895552 1.3076715 -0.34035146 0 20 0
-5.7213898 1.5953963 -0.27651894 0 21 0
-1.0857248 0.28606957 -0.63101345 0 1 0
-1.1438664 0.30138886 -0.62903821 0 2 0
-1.2024263 0.31681839 -0.62456346 0 3 0
-1.2787154 0.33691922 -0.62608576 0 4 0
-1.3508555 0.3559269 -0.62203145 0 5 0
-1.4551245 0.38339993 -0.62849969 0 6 0
-1.5524005 0.4090305 -0.62704688 0 7 0
-1.6463975 0.43379706 -0.6197446 0 8 0
-1.7816101 0.46942323 -0.62247777 0 9 0
-1.945847 0.5126968 -0.62807739 0 10 0
-2.1085145 0.55555683 -0.62528032 0 11 0
-2.3126085 0.60933203 -0.62595326 0 12 0
-2.5588946 0.6742242 -0.62719244 0 13 0
-2.8318846 0.74615222 -0.62249511 0 14 0
-3.210578 0.84593135 -0.62535393 0 15 0
-3.678817 0.9693042 -0.62525368 0 16 0
-3.9641275 1.0444785 -0.5761106 0 17 0
-4.1768842 1.1005362 -0.5048269 0 18 0
-4.4123363 1.1625737 -0.42590502 0 19 0
-4.8198233 1.2699395 -0.34845096 0 20 0
-6.0897989 1.604556 -0.2931844 0 21 0
-1.0663911 0.26471341 -0.61751151 0 1 0
-1.1463424 0.28455994 -0.62809563 0 2 0
-1.2107909 0.30055821 -0.62660944 0 3 0
-1.2886444 0.319884 -0.62864107 0 4 0
-1.359563 0.33748832 -0.62375271 0 5 0
-1.4488817 0.35966018 -0.6235159 0 6 0
-1.5530317 0.38551363 -0.625009 0 7 0
-1.6684901 0.4141742 -0.62576514 0 8 0
-1.7855569 0.44323406 -0.62157649 0 9 0
-1.9464447 0.48317173 -0.62597394 0 10 0
-2.1154876 0.52513373 -0.62505519 0 11 0
-2.3228748 0.57661408 -0.62643397 0 12 0
-2.5642984 0.63654333 -0.62621963 0 13 0
-2.855617 0.70885825 -0.62541753 0 14 0
-3.2376823 0.80369943 -0.62832826 0 15 0
-3.6936493 0.91688544 -0.62548 0 16 0
-4.013886 0.99637872 -0.58120984 0 17 0
-4.2147493 1.0462396 -0.50754148 0 18 0
-4.4956851 1.1159772 -0.43236423 0 19 0
-5.4018164 1.3409088 -0.38909891 0 20 0
-1.0840844 0.25269064 -0.62559861 0 1 0
-1.1391487 0.26552564 -0.62200797 0 2 0
-1.2146595 0.28312656 -0.62645006 0 3 0
-1.2869365 0.29997373 -0.62564927 0 4 0
-1.3740196 0.320272 -0.6282177 0 5 0
-1.4670591 0.3419587 -0.62916762 0 6 0
-1.5652286 0.36484116 -0.62775165 0 7 0
-1.6654917 0.38821161 -0.62249285 0 8 0
-1.7931123 0.41795886 -0.6220603 0 9 0
-1.9522508 0.45505267 -0.62568235 0 10 0
-2.1182561 0.49374706 -0.62372112 0 11 0
-2.3347738 0.54421544 -0.62747782 0 12 0
-2.5768425 0.60063958 -0.62711924 0 13 0
-2.8564329 0.66580963 -0.62344515 0 14 0
-3.2483692 0.75716662 -0.62823462 0 15 0
-3.7038746 0.86334091 -0.6250549 0 16 0
-4.0336437 0.9402073 -0.58206248 0 17 0
-4.2946811 1.0010527 -0.51538861 0 18 0
-4.5896568 1.0698091 -0.43988407 0 19 0
-5.8226428 1.3572074 -0.41796944 0 20 0
-1.0840114 0.23636907 -0.62354028 0 1 0
-1.1534771 0.25151607 -0.62780166 0 2 0
-1.2056425 0.26289076 -0.61979544 0 3 0
-1.2919174 0.28170305 -0.62604636 0 4 0
-1.3651727 0.29767638 -0.62216103 0 5 0
-1.4703327 0.32060656 -0.62853914 0 6 0
-1.5677193 0.34184173 -0.626724 0 7 0
-1.6785479 0.36600792 -0.62535059 0 8 0
-1.8054216 0.39367279 -0.62431186 0 9 0
-1.9716808 0.42992565 -0.62987274 0 10 0
-2.1402423 0.46668056 -0.62816375 0 11 0
-2.3400848 0.51025629 -0.62687814 0 12 0
-2.5741148 0.56128663 -0.6244362 0 13 0
-2.8723619 0.62631947 -0.62490112 0 14 0
-3.2435935 0.70726663 -0.62528908 0 15 0
-3.7192924 0.81099296 -0.62563372 0 16 0
-4.0632873 0.88600117 -0.58445024 0 17 0
-4.3599877 0.95069683 -0.52153939 0 18 0
-4.6992893 1.0246817 -0.4489398 0 19 0
-6.1911311 1.3499783 -0.44298837 0 20 0
-1.0938705 0.22216839 -0.62731791 0 1 0
-1.1537204 0.23432405 -0.62604451 0 2 0
-1.2246143 0.24872282 -0.62765402 0 3 0
-1.2918483 0.26237825 -0.62412906 0 4 0
-1.373211 0.27890328 -0.62394112 0 5 0
-1.4692537 0.29840979 -0.6261878 0 6 0
-1.5740386 0.31969196 -0.62735671 0 7 0
-1.6899478 0.34323347 -0.62770313 0 8 0
-1.8104017 0.36769798 -0.62415004 0 9 0
-1.9609059 0.39826587 -0.62454557 0 10 0
-2.1262238 0.43184242 -0.6221714 0 11 0
-2.3420017 0.47566754 -0.62550372 0 12 0
-2.5910814 0.52625638 -0.62666059 0 13 0
-2.8813713 0.58521509 -0.62497479 0 14 0
-3.260663 0.6622504 -0.62668812 0 15 0
-3.7306151 0.75769907 -0.62564993 0 16 0
-4.1245151 0.83770138 -0.59147179 0 17 0
-4.4290571 0.89955473 -0.52820712 0 18 0
-5.5547686 1.1281902 -0.5290699 0 19 0
-8.7543726 1.7780391 -0.62450862 0 20 0
-1.0977991 0.20665221 -0.62781024 0 1 0
-1.1674644 0.21976615 -0.63173074 0 2 0
-1.24017 0.23345244 -0.63384926 0 3 0
-1.3002146 0.24475539 -0.62641436 0 4 0
-1.3729311 0.25844371 -0.62206948 0 5 0
-1.4688646 0.27650243 -0.62427127 0 6 0
-1.5702108 0.29558009 -0.6240809 0 7 0
-1.6873257 0.31762606 -0.62497646 0 8 0
-1.8116518 0.34102947 -0.62283438 0 9 0
-1.9683748 0.37053138 -0.62517118 0 10 0
-2.1475077 0.40425175 -0.62664211 0 11 0
-2.35114 0.44258398 -0.62618828 0 12 0
-2.6077394 0.49088681 -0.62892562 0 13 0
-2.8991189 0.54573679 -0.62706578 0 14 0
-3.2660253 0.61480409 -0.62596333 0 15 0
-3.742075 0.70441675 -0.62581682 0 16 0
-4.1813412 0.78710526 -0.59794402 0 17 0
-4.5193734 0.85073715 -0.53747094 0 18 0
-5.9193988 1.1142812 -0.56222278 0 19 0
-8.7964621 1.6558661 -0.62575626 0 20 0
-1.1099062 0.19252594 -0.63309324 0 1 0
-1.1630893 0.20175116 -0.62773651 0 2 0
-1.2298998 0.21334019 -0.62697524 0 3 0
-1.3044418 0.22627038 -0.62682641 0 4 0
-1.3972943 0.2423767 -0.63147169 0 5 0
-1.4690374 0.25482136 -0.62273079 0 6 0
-1.5643413 0.27135292 -0.62014085 0 7 0
-1.6900704 0.29316205 -0.62437487 0 8 0
-1.8311821 0.31763953 -0.6279214 0 9 0
-1.9673524 0.34125981 -0.62323123 0 10 0
-2.1565628 0.37408051 -0.62765771 0 11 0
-2.3542032 0.40836352 -0.62538338 0 12 0
-2.6016519 0.45128635 -0.62583548 0 13 0
-2.8962424 0.50238639 -0.62482423 0 14 0
-3.2706871 0.56733811 -0.62523639 0 15 0
-3.7549777 0.65134388 -0.62635136 0 16 0
-4.2622747 0.73934042 -0.60794216 0 17 0
-4.644886 0.80570871 -0.55096972 0 18 0
-6.2231989 1.0794852 -0.58954972 0 19 0
-8.8084221 1.5279217 -0.6249873 0 20 0
-1.0429109 0.1655661 -0.62624156 0 0 0
-1.1005726 0.17472012 -0.62627876 0 1 0
-1.1590835 0.18400894 -0.624089 0 2 0
-1.2389518 0.19668834 -0.63009006 0 3 0
-1.2939939 0.2054265 -0.62032932 0 4 0
-1.3908082 0.22079614 -0.62704802 0 5 0
-1.483832 0.23556402 -0.62750876 0 6 0
-1.5691196 0.24910375 -0.62055802 0 7 0
-1.7080089 0.27115294 -0.62950373 0 8 0
-1.8279475 0.29019368 -0.62532383 0 9 0
-1.9758204 0.31366906 -0.6244275 0 10 0
-2.1565876 0.34236655 -0.62617451 0 11 0
-2.3485518 0.3728416 -0.62240064 0 12 0
-2.6028004 0.41320452 -0.62462503 0 13 0
-2.9009452 0.46053618 -0.62435275 0 14 0
-3.29442 0.52300179 -0.62827784 0 15 0
-3.7623827 0.59729266 -0.62609631 0 16 0
-4.3066607 0.68369889 -0.61281443 0 17 0
-4.7907701 0.76055312 -0.56692493 0 18 0
-6.4148464 1.0183815 -0.60626227 0 19 0
-8.8405933 1.4034781 -0.62578058 0 20 0
-1.0470127 0.15088804 -0.62734342 0 0 0
-1.0973407 0.15814096 -0.62308776 0 1 0
-1.1608232 0.1672896 -0.6236726 0 2 0
-1.227018 0.17682913 -0.62266994 0 3 0
-1.3090466 0.1886505 -0.62618685 0 4 0
-1.3804423 0.19893953 -0.62102705 0 5 0
-1.4783216 0.21304521 -0.62382483 0 6 0
-1.5828594 0.22811046 -0.62463665 0 7 0
-1.7039249 0.24555758 -0.62663895 0 8 0
-1.8292291 0.26361552 -0.62440753 0 9 0
-1.9739 0.28446445 -0.62247002 0 10 0
-2.1669815 0.31229001 -0.62783027 0 11 0
-2.3716629 0.34178722 -0.62716472 0 12 0
-2.6295991 0.37895918 -0.62969005 0 13 0
-2.9122462 0.41969228 -0.62542808 0 14 0
-3.2780759 0.47241303 -0.62380743 0 15 0
-3.763124 0.54231471 -0.62486392 0 16 0
-4.3175116 0.62220907 -0.61302841 0 17 0
-5.2408934 0.75528038 -0.61884844 0 18 0
-6.6468873 0.95790225 -0.62683231 0 19 0
-8.8551521 1.2761418 -0.62545407 0 20 0
-1.0419856 0.13497074 -0.62311 0 0 0
-1.0990806 0.14236638 -0.62285483 0 1 0
-1.17984 0.15282732 -0.6326496 0 2 0
-1.2408935 0.16073573 -0.62847936 0 3 0
-1.3195779 0.1709279 -0.62998968 0 4 0
-1.4023708 0.18165225 -0.62965798 0 5 0
-1.4874902 0.19267794 -0.62646592 0 6 0
-1.610655 0.20863175 -0.63436204 0 7 0
-1.7129132 0.2218775 -0.62871212 0 8 0
-1.8365813 0.23789652 -0.62569082 0 9 0
-1.976199 0.2559815 -0.6219759 0 10 0
-2.1623743 0.28009722 -0.62526983 0 11 0
-2.3868761 0.30917743 -0.62995291 0 12 0
-2.6370492 0.34158289 -0.63023871 0 13 0
-2.9313467 0.37970394 -0.62829846 0 14 0
-3.287066 0.42578104 -0.62429452 0 15 0
-3.7826469 0.48997474 -0.62687689 0 16 0
-4.4045362 0.57052946 -0.6241613 0 17 0
-5.3192053 0.68900859 -0.62686676 0 18 0
-6.640471 0.86015511 -0.62500209 0 19 0
-8.8787479 1.1500843 -0.62589389 0 20 0
-1.0464181 0.12034389 -0.62466651 0 0 0
-1.1053683 0.12712349 -0.62532282 0 1 0
-1.173939 0.13500953 -0.62838489 0 2 0
-1.223142 0.14066812 -0.61840558 0 3 0
-1.3064041 0.15024374 -0.62260979 0 4 0
-1.4130118 0.16250421 -0.63332647 0 5 0
-1.4938995 0.17180675 -0.62806523 0 6 0
-1.5895373 0.18280563 -0.62495017 0 7 0
-1.7218754 0.19802526 -0.63089669 0 8 0
-1.8310813 0.21058452 -0.62272632 0 9 0
-1.9990067 0.2298969 -0.62805426 0 10 0
-2.1655874 0.2490546 -0.62510407 0 11 0
-2.3683195 0.27236992 -0.62396252 0 12 0
-2.6219201 0.3015354 -0.62552738 0 13 0
-2.9259279 0.33649799 -0.62604058 0 14 0
-3.3019412 0.37974161 -0.62602323 0 15 0
-3.7868476 0.43550852 -0.62647581 0 16 0
-4.4253645 0.50894153 -0.62601644 0 17 0
-5.3117523 0.61088103 -0.62489396 0 18 0
-6.6454144 0.76425964 -0.62437385 0 19 0
-8.8761101 1.020802 -0.62461394 0 20 0
-1.0447103 0.10502119 -0.62268591 0 0 0
-1.1002717 0.1106066 -0.62148035 0 1 0
-1.1617115 0.11678293 -0.62088138 0 2 0
-1.2427189 0.12492634 -0.62733513 0 3 0
-1.3319106 0.13389248 -0.63378745 0 4 0
-1.3941047 0.14014465 -0.62388921 0 5 0
-1.4843721 0.14921892 -0.62309796 0 6 0
-1.5934446 0.16018359 -0.62552088 0 7 0
-1.7139503 0.17229763 -0.62702507 0 8 0
-1.850033 0.18597756 -0.6282019 0 9 0
-1.9871141 0.19975787 -0.62335563 0 10 0
-2.1846802 0.21961853 -0.62964344 0 11 0
-2.3707819 0.2383267 -0.6236487 0 12 0
-2.6261091 0.26399389 -0.62556124 0 13 0
-2.9310501 0.29464856 -0.62616998 0 14 0
-3.2996666 0.33170435 -0.62462789 0 15 0
-3.7764213 0.37963089 -0.62378812 0 16 0
-4.4246759 0.44479772 -0.6249544 0 17 0
-5.3348117 0.53629059 -0.62663954 0 18 0
-6.6729236 0.67080647 -0.62599218 0 19 0
-8.9056282 0.8952527 -0.62572527 0 20 0
-1.0531837 0.090667829 -0.62689865 0 0 0
-1.1150347 0.095992543 -0.62897861 0 1 0
-1.1596313 0.099831827 -0.61894244 0 2 0
-1.2321191 0.10607226 -0.62115425 0 3 0
-1.3060545 0.1124373 -0.62065446 0 4 0
-1.3882366 0.11951231 -0.62043405 0 5 0
-1.4904498 0.12831177 -0.62481427 0 6 0
-1.5989074 0.13764879 -0.62682772 0 7 0
-1.7134348 0.14750838 -0.62599999 0 8 0
-1.839121 0.15832862 -0.62366319 0 9 0
-2.0116985 0.17318569 -0.63022554 0 10 0
-2.1893446 0.18847911 -0.63014561 0 11 0
-2.3850081 0.20532367 -0.62655371 0 12 0
-2.6485195 0.22800916 -0.63005757 0 13 0
-2.9447 0.25350714 -0.62824655 0 14 0
-3.3285346 0.28655118 -0.62925166 0 15 0
-3.8180547 0.32869363 -0.62982351 0 16 0
-4.4506831 0.38315615 -0.62778884 0 17 0
-5.3381681 0.45955911 -0.62619704 0 18 0
-6.675602 0.57469785 -0.6254077 0 19 0
-8.9220152 0.76808995 -0.6260401 0 20 0
-1.061365 0.076086596 -0.63105565 0 0 0
-1.1146175 0.079904132 -0.62803376 0 1 0
-1.1794238 0.084549941 -0.62879622 0 2 0
-1.2457778 0.089306697 -0.62733138 0 3 0
-1.3241969 0.094928354 -0.62856591 0 4 0
-1.4013308 0.10045789 -0.62557936 0 5 0
-1.492059 0.10696197 -0.62478304 0 6 0
-1.6009787 0.11477015 -0.62693155 0 7 0
-1.7145753 0.1229136 -0.62570977 0 8 0
-1.8616292 0.13345553 -0.63058358 0 9 0
-2.0049522 0.14373 -0.62740332 0 10 0
-2.1742773 0.1558685 -0.62510276 0 11 0
-2.3783715 0.17049949 -0.62410516 0 12 0
-2.643774 0.18952553 -0.62821901 0 13 0
-2.9436507 0.21102294 -0.62731397 0 14 0
-3.3268888 0.23849633 -0.62823087 0 15 0
-3.7974355 0.27222863 -0.62571526 0 16 0
-4.4308591 0.31763718 -0.62428725 0 17 0
-5.3393579 0.38276517 -0.62562984 0 18 0
-6.6772594 0.47867602 -0.62485713 0 19 0
-8.9117737 0.63886273 -0.62461585 0 20 0
-1.0591674 0.060706418 -0.62916791 0 0 0
-1.1133978 0.063814647 -0.62676775 0 1 0
-1.1833138 0.067821898 -0.630288 0 2 0
-1.2422279 0.071198568 -0.62496656 0 3 0
-1.3212874 0.075729884 -0.62660617 0 4 0
-1.4067674 0.080629185 -0.62742686 0 5 0
-1.4905924 0.085433632 -0.62359297 0 6 0
-1.6097751 0.092264615 -0.62979448 0 7 0
-1.718922 0.098520398 -0.62671721 0 8 0
-1.84067 0.10549841 -0.62290883 0 9 0
-1.9915667 0.11414708 -0.62263954 0 10 0
-2.1803265 0.1249659 -0.6262635 0 11 0
-2.3841517 0.13664819 -0.6250447 0 12 0
-2.6266577 0.15054747 -0.62357587 0 13 0
-2.9527345 0.16923663 -0.6286692 0 14 0
-3.3411536 0.19149897 -0.63034236 0 15 0
-3.8033028 0.21798715 -0.62610382 0 16 0
-4.4350958 0.25419849 -0.62430757 0 17 0
-5.3558474 0.30697158 -0.62698287 0 18 0
-6.6965227 0.3838127 -0.62608153 0 19 0
-8.93402 0.51205534 -0.62559724 0 20 0
-1.0582798 0.045470592 -0.62818968 0 0 0
-1.1149085 0.047903728 -0.62716788 0 1 0
-1.1722819 0.050368864 -0.62396395 0 2 0
-1.2582244 0.054061513 -0.63256025 0 3 0
-1.3092999 0.056256056 -0.62047583 0 4 0
-1.3982798 0.06007921 -0.62319398 0 5 0
-1.4932812 0.064161092 -0.62426972 0 6 0
-1.5979568 0.068658628 -0.6247223 0 7 0
-1.718362 0.07383202 -0.62606359 0 8 0
-1.8427987 0.079178639 -0.62318188 0 9 0
-2.0047927 0.086138956 -0.62632489 0 10 0
-2.1760793 0.093498543 -0.62459517 0 11 0
-2.3964891 0.10296878 -0.62782842 0 12 0
-2.6341972 0.11318227 -0.62491715 0 13 0
