# .PCD v0.7 - Point Cloud Data file format
VERSION 0.7
FIELDS x y z intensity ring time
SIZE 4 4 4 4 2 4
TYPE F F F F U F
COUNT 1 1 1 1 1 1
WIDTH 1224
HEIGHT 1
VIEWPOINT 0 0 0 1 0 0 0
POINTS 1224
DATA ascii
2.2559772 0.54289252 -0.053949881 0 22 0
2.3192167 0.55811083 6.8100046e-05 0 23 0
2.3693986 0.57018691 0.056801483 0 24 0
2.4516199 0.58997321 0.11753689 0 25 0
2.5006647 0.60177565 0.17995836 0 26 0
2.5636978 0.61694431 0.24627969 0 27 0
2.6186149 0.63015991 0.31493902 0 28 0
2.6949239 0.64852339 0.38970354 0 29 0
2.7499704 0.66177016 0.46502975 0 30 0
2.8433907 0.68425137 0.55101728 0 31 0
1.0820868 0.27684215 -0.62773114 0 1 0
1.1339563 0.2901125 -0.62243032 0 2 0
1.210753 0.30976021 -0.62772053 0 3 0
1.2796268 0.32738099 -0.62536854 0 4 0
1.3625445 0.34859473 -0.62624866 0 5 0
1.4490016 0.37071398 -0.62469274 0 6 0
1.5373176 0.39330885 -0.6198014 0 7 0
1.5965236 0.40845615 -0.59985477 0 8 0
1.6377615 0.4190065 -0.57115573 0 9 0
1.7080145 0.4369801 -0.55028635 0 10 0
1.7423096 0.4457542 -0.51572263 0 11 0
1.8114831 0.46345159 -0.48940316 0 12 0
1.8398982 0.47072133 -0.45012683 0 13 0
1.8925072 0.48418087 -0.41523182 0 14 0
1.9425912 0.49699444 -0.37767375 0 15 0
1.9954817 0.510526 -0.33852327 0 16 0
2.0195849 0.51669258 -0.29296318 0 17 0
2.0491447 0.52425516 -0.24720395 0 18 0
2.1032367 0.5380941 -0.20263992 0 19 0
2.1387417 0.54717779 -0.15433399 0 20 0
2.1830494 0.55851352 -0.10490451 0 21 0
2.2366962 0.57223856 -0.053679168 0 22 0
2.2763031 0.58237159 6.7077846e-05 0 23 0
2.3580866 0.60329521 0.056731503 0 24 0
2.4130778 0.61736417 0.11610084 0 25 0
2.4674046 0.6312632 0.1781968 0 26 0
2.5349772 0.64855105 0.2443874 0 27 0
2.5839181 0.66107213 0.31187212 0 28 0
2.6447287 0.67662996 0.3838062 0 29 0
2.7215772 0.69629097 0.46186635 0 30 0
2.7908649 0.71401757 0.54276329 0 31 0
1.0790368 0.29257801 -0.62832683 0 1 0
1.1382953 0.30864578 -0.62717271 0 2 0
1.2085298 0.32768971 -0.62893528 0 3 0
1.2759703 0.345976 -0.62593758 0 4 0
1.3540418 0.36714488 -0.62469208 0 5 0
1.4417433 0.3909249 -0.62391198 0 6 0
1.5320665 0.41541579 -0.62001806 0 7 0
1.5860219 0.43004566 -0.59816051 0 8 0
1.6327058 0.4427039 -0.57154393 0 9 0
1.6708385 0.45304343 -0.54034281 0 10 0
1.7321137 0.46965808 -0.51464182 0 11 0
1.7807258 0.48283914 -0.48291126 0 12 0
1.8351178 0.49758735 -0.45065358 0 13 0
1.8643807 0.50552189 -0.41060618 0 14 0
1.9187834 0.52027309 -0.37445453 0 15 0
1.9529551 0.52953863 -0.3325606 0 16 0
2.0042026 0.54343426 -0.29183027 0 17 0
2.0248773 0.54904014 -0.24519934 0 18 0
2.0694852 0.56113547 -0.20014141 0 19 0
2.1071711 0.57135391 -0.15263031 0 20 0
2.1627305 0.58641869 -0.10432076 0 21 0
2.1971943 0.59576344 -0.052930377 0 22 0
2.2605348 0.61293805 6.6864872e-05 0 23 0
2.3080058 0.62580973 0.055736441 0 24 0
2.3810482 0.64561492 0.11499263 0 25 0
2.4296954 0.65880549 0.17613639 0 26 0
2.4924436 0.67581952 0.24119475 0 27 0
2.5584986 0.69373018 0.3099708 0 28 0
2.6078267 0.70710534 0.37988082 0 29 0
2.6944811 0.73060149 0.4589957 0 30 0
2.7752512 0.75250208 0.54176599 0 31 0
1.061033 0.30406344 -0.62031388 0 1 0
1.1390492 0.32642078 -0.63009781 0 2 0
1.1985391 0.34346899 -0.6262303 0 3 0
1.2763761 0.36577496 -0.62864053 0 4 0
1.3519537 0.3874335 -0.62622303 0 5 0
1.4381196 0.4121263 -0.62483263 0 6 0
1.5285962 0.43805444 -0.62108749 0 7 0
1.5797542 0.45271498 -0.59817928 0 8 0
1.6200398 0.46425974 -0.56937796 0 9 0
1.6553901 0.47439018 -0.53748775 0 10 0
1.698899 0.48685864 -0.50679171 0 11 0
1.7483468 0.50102901 -0.47602651 0 12 0
1.8086655 0.51831478 -0.44593382 0 13 0
1.8409562 0.5275684 -0.40706861 0 14 0
1.886533 0.54062951 -0.36963308 0 15 0
1.9262871 0.55202192 -0.32933116 0 16 0
1.9620532 0.56227154 -0.28683543 0 17 0
2.0114756 0.57643461 -0.24455053 0 18 0
2.0438869 0.58572286 -0.19845624 0 19 0
2.0813842 0.59646857 -0.15136537 0 20 0
2.1292591 0.61018825 -0.10311697 0 21 0
2.1628494 0.61981434 -0.052311372 0 22 0
2.2259755 0.63790452 6.6105938e-05 0 23 0
2.2750425 0.65196586 0.055160113 0 24 0
2.3451116 0.67204577 0.11370999 0 25 0
2.4022431 0.68841809 0.17484272 0 26 0
2.4543147 0.70334041 0.23845479 0 27 0
2.5134335 0.72028226 0.30572873 0 28 0
2.5732372 0.73742044 0.37634116 0 29 0
2.6522183 0.76005429 0.45360312 0 30 0
2.7351623 0.78382373 0.53607535 0 31 0
1.0620807 0.32088196 -0.62354773 0 1 0
1.1308972 0.34167317 -0.62822926 0 2 0
1.1808162 0.35675499 -0.61957473 0 3 0
1.2687299 0.38331598 -0.62751263 0 4 0
1.3433239 0.40585276 -0.62485248 0 5 0
1.4331882 0.4330031 -0.62531877 0 6 0
1.522583 0.46001157 -0.62125593 0 7 0
1.5530216 0.46920782 -0.5905394 0 8 0
1.5930016 0.48128685 -0.56223869 0 9 0
1.640507 0.49563944 -0.534904 0 10 0
1.6843878 0.50889695 -0.50458413 0 11 0
1.7355195 0.52434522 -0.47452885 0 12 0
1.7939576 0.54200083 -0.4441748 0 13 0
1.827535 0.55214542 -0.4058069 0 14 0
1.8599298 0.56193274 -0.36595908 0 15 0
1.9215585 0.58055234 -0.32990962 0 16 0
1.9409733 0.58641803 -0.2849516 0 17 0
1.9806032 0.59839129 -0.2418137 0 18 0
2.0007489 0.60447776 -0.19508778 0 19 0
2.0531063 0.6202963 -0.14993922 0 20 0
2.1128953 0.63836008 -0.10275646 0 21 0
2.1431787 0.64750946 -0.052054435 0 22 0
2.1948688 0.66312641 6.5457323e-05 0 23 0
2.2493801 0.67959571 0.054768141 0 24 0
2.3169892 0.70002216 0.11282067 0 25 0
2.3613839 0.71343488 0.1725944 0 26 0
2.4277301 0.7334798 0.23686767 0 27 0
2.4929497 0.75318432 0.30451727 0 28 0
2.5528634 0.77128583 0.37493762 0 29 0
2.6159294 0.79033965 0.44928542 0 30 0
2.7009468 0.81602561 0.53160411 0 31 0
1.0685203 0.33959028 -0.63011754 0 1 0
1.1277074 0.35840076 -0.6292426 0 2 0
1.1872489 0.37732387 -0.62571973 0 3 0
1.2655274 0.40220183 -0.62871164 0 4 0
1.3406382 0.42607304 -0.62637579 0 5 0
1.4298797 0.4544352 -0.62664902 0 6 0
1.4960433 0.47546294 -0.61314106 0 7 0
1.5379753 0.48878947 -0.5874182 0 8 0
1.5811806 0.50252068 -0.56054777 0 9 0
1.6115589 0.51217532 -0.52780145 0 10 0
1.6709545 0.53105205 -0.5027855 0 11 0
1.7107351 0.54369485 -0.46983191 0 12 0
1.7607875 0.55960226 -0.43790039 0 13 0
1.805003 0.57365453 -0.40258566 0 14 0
1.8536081 0.58910185 -0.36633679 0 15 0
1.8772852 0.59662682 -0.32374144 0 16 0
1.9062805 0.60584188 -0.28110269 0 17 0
1.963176 0.62392408 -0.24075167 0 18 0
2.0029569 0.636567 -0.19617143 0 19 0
2.0289757 0.64483607 -0.14883578 0 20 0
2.077111 0.66013414 -0.1014653 0 21 0
2.1331549 0.67794561 -0.052041333 0 22 0
2.1614892 0.68695068 6.4748456e-05 0 23 0
2.2101045 0.70240128 0.054051112 0 24 0
2.2755582 0.72320336 0.11129593 0 25 0
2.3229206 0.73825574 0.17053798 0 26 0
2.3927214 0.7604394 0.2344899 0 27 0
2.4443791 0.77685696 0.29991186 0 28 0
2.5233455 0.80195355 0.37225011 0 29 0
2.5837071 0.82113725 0.44572422 0 30 0
2.6670663 0.84762996 0.5272696 0 31 0
1.053369 0.35145113 -0.62408531 0 1 0
1.1087371 0.3699244 -0.6215483 0 2 0
1.1797888 0.39363045 -0.62469345 0 3 0
1.2475736 0.41624647 -0.62268829 0 4 0
1.3485358 0.44993198 -0.63300985 0 5 0
1.4288055 0.47671354 -0.6291042 0 6 0
1.485876 0.49575481 -0.61181957 0 7 0
1.5275898 0.5096724 -0.58617783 0 8 0
1.554884 0.51877898 -0.553801 0 9 0
1.6057556 0.53575206 -0.52835822 0 10 0
1.6499079 0.55048323 -0.49877244 0 11 0
1.6888194 0.56346583 -0.46598029 0 12 0
1.7320791 0.57789922 -0.43277356 0 13 0
1.7855459 0.59573817 -0.40010685 0 14 0
1.8143015 0.60533226 -0.36024395 0 15 0
1.8427244 0.61481547 -0.31926626 0 16 0
1.8956766 0.63248271 -0.28084525 0 17 0
1.9304764 0.64409345 -0.23784782 0 18 0
1.9577162 0.65318185 -0.19263645 0 19 0
2.0002813 0.66738349 -0.14741652 0 20 0
2.0547271 0.68554902 -0.10084087 0 21 0
2.0861824 0.69604391 -0.051133189 0 22 0
2.1463566 0.71612078 6.4595581e-05 0 23 0
2.197346 0.73313314 0.053990193 0 24 0
2.2458112 0.74930328 0.11035427 0 25 0
2.2989645 0.76703763 0.1695679 0 26 0
2.370214 0.79080957 0.23336954 0 27 0
2.4232118 0.80849206 0.29870403 0 28 0
2.4803808 0.82756621 0.36762166 0 29 0
2.5663311 0.85624307 0.44479537 0 30 0
2.6325998 0.87835324 0.52288765 0 31 0
1.0600135 0.37061039 -0.63110018 0 1 0
1.1077712 0.38730776 -0.62405062 0 2 0
1.1800345 0.4125731 -0.62788612 0 3 0
1.2511507 0.43743727 -0.62753451 0 4 0
1.3227649 0.46247557 -0.6239562 0 5 0
1.4336058 0.50122869 -0.63431168 0 6 0
1.4670919 0.51293635 -0.60704601 0 7 0
1.4978316 0.52368385 -0.57757592 0 8 0
1.5499878 0.54191911 -0.55476302 0 9 0
1.5855054 0.55433702 -0.52425212 0 10 0
1.6162118 0.56507283 -0.49098074 0 11 0
1.6753492 0.58574891 -0.46452937 0 12 0
1.7212938 0.60181248 -0.43218678 0 13 0
1.743904 0.60971761 -0.39269105 0 14 0
1.8021858 0.63009459 -0.3595922 0 15 0
1.8278499 0.63906747 -0.31824136 0 16 0
1.8587685 0.64987743 -0.27672702 0 17 0
1.9037962 0.66562039 -0.23571032 0 18 0
1.938748 0.67784053 -0.19170505 0 19 0
1.97913 0.6919592 -0.14657263 0 20 0
2.0196557 0.70612812 -0.099605486 0 21 0
2.0698872 0.72369039 -0.050982457 0 22 0
2.1047435 0.73587722 6.3653686e-05 0 23 0
2.1628468 0.75619179 0.053403001 0 24 0
2.2176166 0.77534074 0.10950295 0 25 0
2.262542 0.79104793 0.1676994 0 26 0
2.3300731 0.81465876 0.2305418 0 27 0
2.390491 0.83578247 0.29611489 0 28 0
2.4450109 0.85484421 0.36415559 0 29 0
2.5218451 0.88170755 0.4392274 0 30 0
2.5831137 0.9031288 0.51557344 0 31 0
1.0516139 0.38465083 -0.62931275 0 1 0
1.1058922 0.4045043 -0.62618965 0 2 0
1.1707011 0.42820954 -0.62611699 0 3 0
1.2443343 0.45514256 -0.62731898 0 4 0
1.3208646 0.48313513 -0.62625772 0 5 0
1.3904666 0.50859362 -0.61838198 0 6 0
1.4533184 0.53158301 -0.60443324 0 7 0
1.4942105 0.5465402 -0.57913685 0 8 0
1.5282714 0.55899876 -0.54979783 0 9 0
1.5823721 0.57878721 -0.5259015 0 10 0
1.6143389 0.59047979 -0.49292886 0 11 0
1.6554304 0.60550994 -0.46136227 0 12 0
1.6787291 0.61403191 -0.42366284 0 13 0
1.7389098 0.63604432 -0.39357617 0 14 0
1.7665267 0.64614582 -0.35428619 0 15 0
1.819543 0.66553771 -0.31842104 0 16 0
1.8384877 0.67246711 -0.27511251 0 17 0
1.8776852 0.68680447 -0.23367068 0 18 0
1.9348541 0.70771521 -0.19230197 0 19 0
1.9582698 0.71628004 -0.1457721 0 20 0
1.9901215 0.72793049 -0.098652661 0 21 0
2.0361419 0.74476349 -0.050408699 0 22 0
2.079278 0.76054144 6.3206287e-05 0 23 0
2.1367164 0.78155082 0.053028595 0 24 0
2.1861753 0.79964149 0.10850449 0 25 0
2.2405937 0.81954616 0.16692495 0 26 0
2.3041859 0.8428064 0.22915056 0 27 0
2.351295 0.86003762 0.2927545 0 28 0
2.4043777 0.87945384 0.35994172 0 29 0
2.4912491 0.9112289 0.43612552 0 30 0
2.5545025 0.93436521 0.51247966 0 31 0
1.1017169 0.42095029 -0.62717289 0 2 0
1.1654078 0.44528571 -0.62663054 0 3 0
1.2378664 0.47297111 -0.6274069 0 4 0
1.2968632 0.49551296 -0.61817741 0 5 0
1.3775882 0.52635676 -0.61594206 0 6 0
1.4322554 0.54724437 -0.59886956 0 7 0
1.4642253 0.55945957 -0.57056022 0 8 0
1.5061635 0.57548362 -0.544752 0 9 0
1.5533832 0.59352559 -0.51903737 0 10 0
1.5968171 0.61012107 -0.49019504 0 11 0
1.6338434 0.62426829 -0.45778945 0 12 0
1.6772791 0.64086443 -0.42556831 0 13 0
1.7144787 0.65507787 -0.39012882 0 14 0
1.7566681 0.67119783 -0.3541995 0 15 0
1.786262 0.68250525 -0.31427422 0 16 0
1.8316705 0.69985521 -0.27556315 0 17 0
1.8497596 0.70676678 -0.23143068 0 18 0
1.8967528 0.72472227 -0.18952672 0 19 0
1.9407645 0.74153847 -0.14524424 0 20 0
1.9720488 0.75349176 -0.098281346 0 21 0
2.0151744 0.7699694 -0.050157312 0 22 0
2.0665271 0.7895906 6.315577e-05 0 23 0
2.117626 0.80911469 0.052836817 0 24 0
2.1592367 0.82501358 0.10774253 0 25 0
2.2085462 0.84385401 0.16542031 0 26 0
2.262455 0.86445183 0.22620779 0 27 0
2.3275051 0.88930649 0.2913475 0 28 0
2.3859801 0.91164899 0.35910422 0 29 0
2.4393568 0.93204349 0.42933261 0 30 0
2.5075748 0.9581086 0.5057646 0 31 0
1.0881296 0.43370566 -0.62290823 0 2 0
1.1629348 0.46352142 -0.62880379 0 3 0
1.225841 0.48859453 -0.62479252 0 4 0
1.2930368 0.51537734 -0.61980629 0 5 0
1.3583356 0.54140407 -0.61073625 0 6 0
1.3934716 0.55540854 -0.58591694 0 7 0
1.4540751 0.5795638 -0.56977922 0 8 0
1.499873 0.59781796 -0.54551584 0 9 0
1.5449151 0.6157707 -0.51909965 0 10 0
1.5682093 0.62505537 -0.48410982 0 11 0
1.6192938 0.64541656 -0.45625445 0 12 0
1.6550146 0.65965408 -0.42227167 0 13 0
1.6936069 0.67503613 -0.38753834 0 14 0
1.7244543 0.68733132 -0.34965202 0 15 0
1.7708979 0.70584273 -0.31331649 0 16 0
1.7997942 0.7173602 -0.27228442 0 17 0
1.8312938 0.72991526 -0.23040389 0 18 0
1.8598974 0.74131608 -0.18688518 0 19 0
1.9038228 0.75882381 -0.14327775 0 20 0
1.9471999 0.77611309 -0.097586587 0 21 0
1.9836655 0.79064745 -0.049649652 0 22 0
2.0258422 0.80745822 6.225922e-05 0 23 0
2.0907512 0.83332962 0.052458506 0 24 0
2.1259246 0.84734899 0.10667457 0 25 0
2.1873581 0.87183505 0.16475113 0 26 0
2.241899 0.89357394 0.22540826 0 27 0
2.2898231 0.91267544 0.28823635 0 28 0
2.3558969 0.9390111 0.35656288 0 29 0
2.4109123 0.96093905 0.42670339 0 30 0
2.5015776 0.99707633 0.5073815 0 31 0
1.0910566 0.45307389 -0.62823182 0 2 0
1.1545439 0.47943771 -0.627913 0 3 0
1.2119154 0.50326186 -0.62130266 0 4 0
1.2859254 0.53399539 -0.6199978 0 5 0
1.3302443 0.55239934 -0.60159922 0 6 0
1.3721828 0.5698148 -0.58033556 0 7 0
1.4395258 0.59777975 -0.56737274 0 8 0
1.4644254 0.60811961 -0.53573418 0 9 0
1.5210488 0.6316331 -0.51406556 0 10 0
1.5561484 0.64620864 -0.48319244 0 11 0
1.5963234 0.66289175 -0.45240939 0 12 0
1.6403549 0.68117636 -0.42097583 0 13 0
1.6707215 0.69378644 -0.3845346 0 14 0
1.7038292 0.70753479 -0.3474879 0 15 0
1.7416645 0.72324634 -0.30994421 0 16 0
1.7683921 0.73434526 -0.26909631 0 17 0
1.8183594 0.75509477 -0.23011279 0 18 0
1.8423142 0.7650423 -0.18619964 0 19 0
1.8730314 0.77779794 -0.14178376 0 20 0
1.9173406 0.79619789 -0.096651383 0 21 0
1.9588264 0.8134253 -0.049314309 0 22 0
2.0018919 0.83130872 6.1882507e-05 0 23 0
2.0564146 0.85394996 0.051898342 0 24 0
2.1050582 0.8741498 0.10624448 0 25 0
2.1363039 0.88712496 0.16184556 0 26 0
2.212074 0.91858935 0.2237086 0 27 0
2.2498467 0.93427485 0.28485835 0 28 0
2.3156524 0.96160144 0.35251892 0 29 0
2.3853929 0.99056196 0.42465264 0 30 0
2.44593 1.0157007 0.49899238 0 31 0
1.0258287 0.44330531 -0.62805575 0 1 0
1.0995499 0.47516346 -0.6369732 0 2 0
1.1417491 0.49339962 -0.62473136 0 3 0
1.2156852 0.52535063 -0.62702608 0 4 0
1.2649956 0.54665977 -0.61361635 0 5 0
1.3154793 0.56847596 -0.59854037 0 6 0
1.3535936 0.58494681 -0.57595563 0 7 0
1.4061962 0.60767871 -0.55760735 0 8 0
1.4504365 0.62679684 -0.53384399 0 9 0
1.5101393 0.65259713 -0.51348293 0 10 0
1.5426558 0.66664886 -0.4819164 0 11 0
1.578746 0.68224502 -0.45014927 0 12 0
1.611178 0.69626027 -0.41600299 0 13 0
1.6489671 0.71259063 -0.38183603 0 14 0
1.6911488 0.73081917 -0.34699959 0 15 0
1.714963 0.74111027 -0.30704871 0 16 0
1.7511101 0.75673103 -0.26808727 0 17 0
1.7919074 0.77436137 -0.22814459 0 18 0
1.8301532 0.79088908 -0.18609561 0 19 0
1.8564337 0.80224597 -0.14138211 0 20 0
1.8874263 0.8156392 -0.095722131 0 21 0
1.9338021 0.83568025 -0.04898043 0 22 0
1.9687696 0.85079122 6.1228799e-05 0 23 0
2.0348582 0.87935096 0.051666673 0 24 0
2.0777202 0.89787352 0.10550254 0 25 0
2.1239634 0.91785717 0.16188936 0 26 0
2.1783409 0.94135612 0.22163709 0 27 0
2.2279983 0.96281528 0.2838079 0 28 0
2.2807252 0.98560083 0.34931368 0 29 0
2.3587036 1.0192988 0.4224554 0 30 0
2.4198706 1.0457317 0.49667877 0 31 0
0.95009738 0.42681774 -0.61769819 0 0 0
1.0076215 0.45265967 -0.62081176 0 1 0
1.0812596 0.48574054 -0.6303407 0 2 0
1.1315758 0.50834441 -0.62308228 0 3 0
1.2130502 0.5449456 -0.62962562 0 4 0
1.267494 0.56940365 -0.61871833 0 5 0
1.3190295 0.59255522 -0.60395288 0 6 0
1.3543856 0.60843855 -0.57993889 0 7 0
1.377255 0.61871225 -0.54958647 0 8 0
1.439299 0.64658463 -0.53309649 0 9 0
1.4790722 0.6644522 -0.50610131 0 10 0
1.5279111 0.68639237 -0.4803302 0 11 0
1.5606167 0.70108491 -0.44779545 0 12 0
1.5951701 0.71660757 -0.41447571 0 13 0
1.6365874 0.7352137 -0.38136712 0 14 0
1.6613386 0.74633276 -0.34303975 0 15 0
1.6938494 0.76093781 -0.30518731 0 16 0
1.7335165 0.77875763 -0.26707292 0 17 0
1.7735479 0.79674119 -0.22723575 0 18 0
1.7911125 0.80463189 -0.18327814 0 19 0
1.8313744 0.82271898 -0.14035611 0 20 0
1.8702761 0.840195 -0.095452487 0 21 0
1.9132886 0.85951775 -0.048767466 0 22 0
1.9460047 0.87421501 6.0903731e-05 0 23 0
2.0058322 0.90109169 0.051251918 0 24 0
2.0383527 0.91570097 0.1041584 0 25 0
2.0978465 0.94242775 0.16091041 0 26 0
2.150383 0.96602911 0.22017679 0 27 0
2.2074494 0.9916653 0.28296942 0 28 0
2.2502608 1.0108978 0.3468284 0 29 0
2.3274615 1.0455791 0.41949725 0 30 0
2.3996654 1.0780156 0.49564791 0 31 0
0.95032436 0.44337311 -0.62190801 0 0 0
0.99530876 0.46436054 -0.61725754 0 1 0
1.0594423 0.49428201 -0.62168264 0 2 0
1.1195811 0.5223397 -0.62053078 0 3 0
1.1978981 0.55887848 -0.62584901 0 4 0
1.2742094 0.59448141 -0.62608594 0 5 0
1.2852963 0.59965402 -0.59237659 0 6 0
1.3405166 0.62541699 -0.57777417 0 7 0
1.3906136 0.6487897 -0.55856568 0 8 0
1.4242495 0.66448253 -0.53099072 0 9 0
1.4613519 0.68179256 -0.50332552 0 10 0
1.4992352 0.699467 -0.47441414 0 11 0
1.53836 0.71772069 -0.44431141 0 12 0
1.5895628 0.74160933 -0.41573426 0 13 0
1.6038225 0.74826217 -0.37618926 0 14 0
1.6407769 0.76550323 -0.34102163 0 15 0
1.6874942 0.7872991 -0.3060413 0 16 0
1.6960632 0.79129696 -0.26302072 0 17 0
1.7338028 0.80890441 -0.22360396 0 18 0
1.7851902 0.83287913 -0.18387318 0 19 0
1.8087137 0.84385395 -0.13953079 0 20 0
1.8593527 0.86747956 -0.095518909 0 21 0
1.8810475 0.87760127 -0.048260912 0 22 0
1.9176991 0.89470106 6.0412462e-05 0 23 0
1.9818625 0.92463642 0.050972398 0 24 0
2.0077744 0.93672562 0.10327042 0 25 0
2.0737493 0.96750611 0.1601079 0 26 0
2.1339664 0.9956004 0.21993247 0 27 0
2.1822612 1.0181323 0.28157985 0 28 0
2.2293844 1.0401176 0.34586993 0 29 0
2.2956996 1.0710568 0.41649303 0 30 0
2.372983 1.1071134 0.49335927 0 31 0
0.9488166 0.4593178 -0.62515968 0 0 0
0.99956167 0.48388326 -0.62412637 0 1 0
1.0568306 0.51160693 -0.62438321 0 2 0
1.1202782 0.54232162 -0.62515557 0 3 0
1.1877407 0.57497984 -0.62477797 0 4 0
1.2497522 0.6049993 -0.61826038 0 5 0
1.2856575 0.62238097 -0.59658778 0 6 0
1.3262135 0.64201391 -0.57551122 0 7 0
1.3805615 0.66832352 -0.55831325 0 8 0
1.432655 0.69354177 -0.53777039 0 9 0
1.4451481 0.69958961 -0.50114214 0 10 0
1.4871335 0.71991462 -0.47379693 0 11 0
1.5237833 0.73765659 -0.44310549 0 12 0
1.5431418 0.74702793 -0.40634823 0 13 0
1.587319 0.76841396 -0.37485966 0 14 0
1.6191939 0.78384441 -0.33883294 0 15 0
1.6574563 0.80236709 -0.30264553 0 16 0
1.6980702 0.82202804 -0.26512945 0 17 0
1.7100595 0.82783204 -0.22204725 0 18 0
1.7435017 0.8440212 -0.18080509 0 19 0
1.7838409 0.86354929 -0.13855134 0 20 0
1.8320655 0.88689458 -0.094759546 0 21 0
1.8563129 0.89863259 -0.047951404 0 22 0
1.9041219 0.92177677 6.0394199e-05 0 23 0
1.9468298 0.94245148 0.050413162 0 24 0
2.0025427 0.96942186 0.10370442 0 25 0
2.0521889 0.99345529 0.15952481 0 26 0
2.0921056 1.0127789 0.21708998 0 27 0
2.1317794 1.0319847 0.27694368 0 28 0
2.2182477 1.0738436 0.34649125 0 29 0
2.2527621 1.0905519 0.41149297 0 30 0
2.33585 1.1307744 0.48895401 0 31 0
0.94362766 0.47359401 -0.62614304 0 0 0
0.99644995 0.50010478 -0.62658888 0 1 0
1.0593315 0.53166425 -0.63029224 0 2 0
1.1155559 0.55988246 -0.62692815 0 3 0
1.1829104 0.59368682 -0.62664294 0 4 0
1.2388431 0.62175864 -0.61720306 0 5 0
1.2885485 0.64670509 -0.6021629 0 6 0
1.3254743 0.66523767 -0.57926309 0 7 0
1.3675885 0.68637431 -0.55698287 0 8 0
1.4013927 0.70334017 -0.52976024 0 9 0
1.4341533 0.71978223 -0.5008508 0 10 0
1.4806083 0.74309736 -0.47505805 0 11 0
1.4989406 0.75229812 -0.43896767 0 12 0
1.5264045 0.76608187 -0.40478683 0 13 0
1.5569246 0.78139949 -0.37028515 0 14 0
1.6070085 0.8065359 -0.33866408 0 15 0
1.6266712 0.8164044 -0.29912737 0 16 0
1.6481609 0.82718974 -0.25915894 0 17 0
1.7028154 0.8546201 -0.22267219 0 18 0
1.732229 0.86938238 -0.18090801 0 19 0
1.7667863 0.88672626 -0.13819836 0 20 0
1.8121191 0.90947819 -0.09439151 0 21 0
1.8322519 0.91958255 -0.047665 0 22 0
1.8810875 0.94409251 6.0086055e-05 0 23 0
1.9299824 0.96863216 0.050330766 0 24 0
1.9740578 0.990753 0.10295313 0 25 0
2.010752 1.0091693 0.15741049 0 26 0
2.0472164 1.0274704 0.21393614 0 27 0
2.1243551 1.0661852 0.27793327 0 28 0
2.1768293 1.0925214 0.34242925 0 29 0
2.2300017 1.1192079 0.4102197 0 30 0
2.2911587 1.1499016 0.48299479 0 31 0
0.93218768 0.48467708 -0.62309152 0 0 0
0.99853146 0.51917154 -0.63250583 0 1 0
1.0497215 0.54578704 -0.62915802 0 2 0
1.1021612 0.57305229 -0.62394619 0 3 0
1.1778255 0.61239272 -0.6285283 0 4 0
1.2350041 0.64212191 -0.61980593 0 5 0
1.2811712 0.66612583 -0.6031093 0 6 0
1.3267424 0.68981987 -0.58407253 0 7 0
1.3649235 0.70967156 -0.55997711 0 8 0
1.400808 0.72832918 -0.53342539 0 9 0
1.4221584 0.73943001 -0.50030673 0 10 0
1.4598154 0.75900924 -0.47182402 0 11 0
1.4733934 0.76606894 -0.43465278 0 12 0
1.4960964 0.77787292 -0.39966112 0 13 0
1.5431206 0.80232251 -0.36969554 0 14 0
1.5830503 0.82308334 -0.33606347 0 15 0
1.6032997 0.83361173 -0.29699335 0 16 0
1.6520126 0.85893923 -0.26167095 0 17 0
1.6823385 0.87470675 -0.221609 0 18 0
1.708441 0.88827842 -0.17973311 0 19 0
1.7495643 0.90965986 -0.13785559 0 20 0
1.7789019 0.92491353 -0.093341291 0 21 0
1.8220091 0.94732642 -0.04774639 0 22 0
1.8511033 0.96245354 5.956223e-05 0 23 0
1.9067992 0.99141175 0.050091118 0 24 0
1.9431313 1.0103021 0.10208394 0 25 0
2.0000551 1.0398988 0.15772215 0 26 0
2.036144 1.0586628 0.21434063 0 27 0
2.1015189 1.0926534 0.27696338 0 28 0
2.1490197 1.1173507 0.34053555 0 29 0
2.2150955 1.1517057 0.41046804 0 30 0
2.2687559 1.1796057 0.48178211 0 31 0
0.92878562 0.49992281 -0.62553644 0 0 0
0.97588676 0.52527523 -0.62286055 0 1 0
1.033116 0.55607903 -0.62391198 0 2 0
1.0926768 0.58813792 -0.6232788 0 3 0
1.1553577 0.62187624 -0.62122512 0 4 0
1.2265567 0.66019934 -0.62024546 0 5 0
1.2777088 0.68773216 -0.60605127 0 6 0
1.3163425 0.70852697 -0.58389896 0 7 0
1.3491205 0.72616982 -0.55770087 0 8 0
1.3754772 0.74035645 -0.52776074 0 9 0
1.3942736 0.75047374 -0.49422538 0 10 0
1.4280729 0.76866627 -0.46507296 0 11 0
1.4527794 0.78196472 -0.43182921 0 12 0
1.4820487 0.79771906 -0.39891782 0 13 0
1.5149745 0.81544143 -0.36571118 0 14 0
1.5582287 0.83872324 -0.33330852 0 15 0
1.5920405 0.85692257 -0.2971493 0 16 0
1.6264042 0.87541896 -0.25957286 0 17 0
1.6506225 0.88845456 -0.21908386 0 18 0
1.684031 0.9064368 -0.17851174 0 19 0
1.7058244 0.91816723 -0.13543078 0 20 0
1.7524205 0.9432478 -0.092650712 0 21 0
1.7926688 0.96491158 -0.047334597 0 22 0
1.8227936 0.98112643 5.9097132e-05 0 23 0
1.8800094 1.0119231 0.049762756 0 24 0
1.9084364 1.0272239 0.10102331 0 25 0
1.9646282 1.0574695 0.15610605 0 26 0
2.0096817 1.0817196 0.21316302 0 27 0
2.0685194 1.1133894 0.27468646 0 28 0
2.1263492 1.1445165 0.33950427 0 29 0
2.1648946 1.1652638 0.40421486 0 30 0
2.2334375 1.2021573 0.47788712 0 31 0
0.92196375 0.51340282 -0.62582707 0 0 0
0.98458624 0.54827464 -0.63335693 0 1 0
1.0147885 0.56509298 -0.61766529 0 2 0
1.0864687 0.60500866 -0.62461329 0 3 0
1.1501071 0.64044625 -0.62326705 0 4 0
1.2195349 0.67910761 -0.62154639 0 5 0
1.2539819 0.69828975 -0.59947646 0 6 0
1.3135161 0.73144186 -0.58722913 0 7 0
1.3394115 0.74586189 -0.55804342 0 8 0
1.3651835 0.7602132 -0.52793217 0 9 0
1.3939987 0.77625918 -0.49801537 0 10 0
1.4230956 0.79246205 -0.46709818 0 11 0
1.4440678 0.80414057 -0.43261671 0 12 0
1.4756985 0.82175434 -0.40033352 0 13 0
1.5138674 0.84300905 -0.36831903 0 14 0
1.5367289 0.85573965 -0.33129573 0 15 0
1.5768057 0.87805676 -0.29662117 0 16 0
1.5952997 0.88835526 -0.25661168 0 17 0
1.6278433 0.90647739 -0.21776024 0 18 0
1.6533589 0.92068595 -0.17663924 0 19 0
1.6823239 0.93681538 -0.13461581 0 20 0
1.7356744 0.966524 -0.092487291 0 21 0
1.775979 0.98896796 -0.04726284 0 22 0
1.8015161 1.0031885 5.8866797e-05 0 23 0
1.8429192 1.0262442 0.049164776 0 24 0
1.8877697 1.0512195 0.1007155 0 25 0
1.9428951 1.0819165 0.15559372 0 26 0
1.9832041 1.104363 0.21200953 0 27 0
2.0365965 1.134095 0.27257502 0 28 0
2.0956838 1.1669981 0.33724058 0 29 0
2.1297965 1.1859939 0.4007901 0 30 0
2.1884871 1.2186763 0.47195312 0 31 0
0.92075652 0.53013521 -0.63009375 0 0 0
0.97078139 0.55893755 -0.62955856 0 1 0
1.022338 0.58862185 -0.62732428 0 2 0
1.0867488 0.62570709 -0.62985873 0 3 0
1.1456527 0.6596216 -0.62590551 0 4 0
1.2124511 0.69808143 -0.6229648 0 5 0
1.2538291 0.72190529 -0.60428125 0 6 0
1.2848785 0.73978227 -0.57910073 0 7 0
1.3224374 0.76140726 -0.55545521 0 8 0
1.3451402 0.77447861 -0.52441436 0 9 0
1.380522 0.79485005 -0.49721435 0 10 0
1.4054397 0.80919671 -0.46505705 0 11 0
1.4357328 0.82663828 -0.43361995 0 12 0
1.4400656 0.82913291 -0.39384609 0 13 0
1.4918972 0.85897553 -0.36592758 0 14 0
1.5190101 0.87458599 -0.33014077 0 15 0
1.5293778 0.88055533 -0.29004052 0 16 0
1.58208 0.91089916 -0.25655618 0 17 0
1.5960205 0.91892552 -0.21524069 0 18 0
1.6314667 0.93933409 -0.1757188 0 19 0
1.6768577 0.96546847 -0.13527034 0 20 0
1.7097282 0.98439401 -0.091846123 0 21 0
1.7497572 1.007441 -0.046943959 0 22 0
1.7701019 1.0191548 5.8310994e-05 0 23 0
1.7987175 1.0356305 0.048376076 0 24 0
1.8653809 1.0740126 0.1003309 0 25 0
1.9153457 1.1027803 0.15463571 0 26 0
1.96715 1.1326073 0.21200465 0 27 0
2.0106306 1.1576416 0.27128965 0 28 0
2.0520017 1.1814615 0.33289838 0 29 0
2.1104913 1.2151376 0.40038922 0 30 0
2.1635537 1.2456888 0.47037312 0 31 0
0.90606773 0.53908968 -0.62525827 0 0 0
0.95288312 0.56694376 -0.62315017 0 1 0
1.0151718 0.60400409 -0.62816751 0 2 0
1.0665327 0.63456273 -0.62334216 0 3 0
1.1450182 0.68125981 -0.63082165 0 4 0
1.1834421 0.70412111 -0.61317533 0 5 0
1.2367809 0.73585653 -0.60107952 0 6 0
1.2722936 0.75698566 -0.57825285 0 7 0
1.3006563 0.77386087 -0.55090261 0 8 0
1.3307904 0.79179001 -0.52318472 0 9 0
1.3584504 0.80824709 -0.49338108 0 10 0
1.3812375 0.82180488 -0.46089369 0 11 0
1.4176339 0.84345984 -0.43175569 0 12 0
1.4375403 0.8553037 -0.39646298 0 13 0
1.4569435 0.86684823 -0.36036062 0 14 0
1.5086682 0.89762324 -0.33065161 0 15 0
1.51526 0.90154517 -0.28978068 0 16 0
1.5451087 0.91930449 -0.25266874 0 17 0
1.5876875 0.94463795 -0.21591826 0 18 0
1.6114966 0.95880377 -0.1750281 0 19 0
1.6429757 0.97753316 -0.13365214 0 20 0
1.6772655 0.99793482 -0.090860248 0 21 0
1.7183106 1.0223557 -0.046488117 0 22 0
1.7594782 1.0468495 5.8448648e-05 0 23 0
1.7844204 1.0616895 0.048395306 0 24 0
1.8322451 1.0901442 0.099377744 0 25 0
1.8764119 1.1164223 0.15276688 0 26 0
1.9319091 1.149442 0.20995827 0 27 0
1.9741145 1.1745533 0.2686035 0 28 0
2.0331113 1.209655 0.33260864 0 29 0
2.0822554 1.2388946 0.39835587 0 30 0
2.1376791 1.2718704 0.46865761 0 31 0
0.89769202 0.55165339 -0.62486327 0 0 0
0.95463151 0.58664405 -0.62972033 0 1 0
0.99907726 0.61395705 -0.62358248 0 2 0
1.0613395 0.6522187 -0.62569904 0 3 0
1.1345062 0.6971814 -0.63046342 0 4 0
1.1995213 0.73713475 -0.62690896 0 5 0
1.2167727 0.74773616 -0.59649593 0 6 0
1.2592425 0.77383488 -0.5772962 0 7 0
1.2925241 0.7942872 -0.55221701 0 8 0
1.3158369 0.80861348 -0.52180266 0 9 0
1.3327498 0.81900692 -0.48825443 0 10 0
1.3739163 0.84430468 -0.46243587 0 11 0
1.3951399 0.85734713 -0.42859849 0 12 0
1.4229655 0.87444663 -0.39585477 0 13 0
1.4407862 0.88539791 -0.35946205 0 14 0
1.4615571 0.89816213 -0.32311085 0 15 0
1.5002009 0.92190957 -0.28939468 0 16 0
1.5315242 0.94115853 -0.25262433 0 17 0
1.5567064 0.95663363 -0.21354523 0 18 0
1.5888792 0.97640455 -0.17407168 0 19 0
1.6074935 0.98784351 -0.13190244 0 20 0
1.6522009 1.0153173 -0.090280473 0 21 0
1.6746684 1.0291241 -0.045701239 0 22 0
1.7287226 1.0623417 5.7926158e-05 0 23 0
1.7792159 1.093371 0.048673611 0 24 0
1.8029394 1.1079497 0.098638296 0 25 0
1.8519428 1.1380634 0.15208538 0 26 0
1.9037706 1.1699129 0.2086987 0 27 0
1.9526135 1.199928 0.26798746 0 28 0
1.9891235 1.2223643 0.32824108 0 29 0
2.0545299 1.2625581 0.39646834 0 30 0
2.1126792 1.2982923 0.46720299 0 31 0
0.88989174 0.56456321 -0.62499458 0 0 0
0.93598515 0.59380573 -0.62296307 0 1 0
0.98021293 0.62186462 -0.61730057 0 2 0
1.0498582 0.66604882 -0.6244868 0 3 0
1.1159123 0.70795476 -0.62569767 0 4 0
1.1740805 0.74485767 -0.61912137 0 5 0
1.2076612 0.7661618 -0.59734398 0 6 0
1.2444366 0.78949279 -0.57563013 0 7 0
1.258105 0.79816437 -0.5423373 0 8 0
1.2858114 0.81574178 -0.51447344 0 9 0
1.3254234 0.84087229 -0.4899295 0 10 0
1.3523353 0.85794574 -0.45925835 0 11 0
1.3768125 0.87347442 -0.42676526 0 12 0
1.4024771 0.88975656 -0.39365765 0 13 0
1.4282227 0.90609002 -0.35952643 0 14 0
1.4500667 0.91994822 -0.32344851 0 15 0
1.4869751 0.94336361 -0.28941849 0 16 0
1.4995657 0.95135128 -0.24957336 0 17 0
1.5328217 0.97244948 -0.21215644 0 18 0
1.5630432 0.99162257 -0.17277847 0 19 0
1.5881487 1.0075499 -0.13148499 0 20 0
1.6302686 1.0342715 -0.089881748 0 21 0
1.6639316 1.0556279 -0.045815881 0 22 0
1.6981647 1.0773461 5.7413057e-05 0 23 0
1.7306347 1.0979456 0.047769617 0 24 0
1.7897909 1.1354753 0.098797992 0 25 0
1.8342781 1.1636988 0.15198702 0 26 0
1.8796417 1.1924783 0.20790341 0 27 0
1.9220111 1.2193582 0.26615554 0 28 0
1.9697927 1.2496717 0.32796928 0 29 0
2.0209739 1.282142 0.39349407 0 30 0
2.0678606 1.3118877 0.46139696 0 31 0
0.88146704 0.57707554 -0.62481487 0 0 0
0.94218904 0.6168288 -0.6329037 0 1 0
0.995875 0.65197569 -0.632976 0 2 0
1.0381699 0.67966515 -0.62325704 0 3 0
1.1071992 0.72485703 -0.6265654 0 4 0
1.1524142 0.75445825 -0.61332792 0 5 0
1.1861298 0.77653104 -0.59213108 0 6 0
1.2183936 0.79765338 -0.56880653 0 7 0
1.252674 0.8200959 -0.54500043 0 8 0
1.2777373 0.83650428 -0.51598066 0 9 0
1.3022569 0.85255671 -0.48582721 0 10 0
1.331735 0.87185526 -0.45645365 0 11 0
1.3509858 0.8844583 -0.42264065 0 12 0
1.3783041 0.90234298 -0.39045784 0 13 0
1.4067993 0.92099816 -0.35741538 0 14 0
1.4353917 0.93971688 -0.32314229 0 15 0
1.4658402 0.95965081 -0.28794888 0 16 0
1.471661 0.96346152 -0.247199 0 17 0
1.5104311 0.98884338 -0.21099478 0 18 0
1.5519615 1.0160323 -0.17314336 0 19 0
1.5751253 1.0311972 -0.1316153 0 20 0
1.6118405 1.0552337 -0.089689299 0 21 0
1.6406548 1.0740978 -0.045593612 0 22 0
1.6746558 1.0963573 5.7142945e-05 0 23 0
1.7215971 1.1270888 0.047960542 0 24 0
1.7511066 1.146408 0.097558394 0 25 0
1.7986751 1.1775498 0.15041815 0 26 0
1.8535178 1.2134541 0.20691383 0 27 0
1.8996837 1.2436779 0.26550159 0 28 0
1.9424767 1.2716933 0.32641843 0 29 0
2.0041564 1.3120736 0.3938359 0 30 0
2.0449646 1.3387898 0.46051681 0 31 0
0.86977303 0.58737332 -0.62242138 0 0 0
0.91258168 0.61628276 -0.61887735 0 1 0
0.96918195 0.65450591 -0.62190074 0 2 0
1.031669 0.69670463 -0.6252771 0 3 0
1.0859417 0.73335588 -0.62041241 0 4 0
1.1431496 0.77198941 -0.61421514 0 5 0
1.1728439 0.79204255 -0.59109759 0 6 0
1.2081437 0.81588113 -0.56941491 0 7 0
1.2350476 0.83404976 -0.54247004 0 8 0
1.2525475 0.84586781 -0.51064539 0 9 0
1.2808955 0.86501169 -0.48242763 0 10 0
1.3035045 0.88027996 -0.45105001 0 11 0
1.3298466 0.89806926 -0.42000589 0 12 0
1.3499929 0.91167438 -0.38609478 0 13 0
1.3862083 0.9361313 -0.35555181 0 14 0
1.4243113 0.96186292 -0.32371408 0 15 0
1.4296396 0.96546125 -0.28352323 0 16 0
1.4633338 0.98821557 -0.2481508 0 17 0
1.4945569 1.0093011 -0.21077377 0 18 0
1.5211136 1.0272353 -0.17132464 0 19 0
1.5573385 1.0516986 -0.13137344 0 20 0
1.5886942 1.0728737 -0.089246713 0 21 0
1.6211344 1.0947812 -0.045481954 0 22 0
1.6606774 1.1214852 5.7207853e-05 0 23 0
1.6845059 1.1375771 0.047375999 0 24 0
1.7271495 1.166375 0.097143844 0 25 0
1.7830991 1.2041588 0.15054151 0 26 0
1.8225484 1.2307996 0.20540223 0 27 0
1.881073 1.2703223 0.26541457 0 28 0
1.9259201 1.3006084 0.32673106 0 29 0
1.9774642 1.335417 0.3923066 0 30 0
2.0259156 1.3681371 0.4605898 0 31 0
0.87102586 0.60654974 -0.6294663 0 0 0
0.90862644 0.6327334 -0.62227321 0 1 0
0.96312577 0.6706847 -0.62411064 0 2 0
1.0252968 0.71397829 -0.62754458 0 3 0
1.0887818 0.75818682 -0.62817067 0 4 0
1.1312807 0.78778148 -0.61383361 0 5 0
1.1532452 0.80307674 -0.58695316 0 6 0
1.1781266 0.82040316 -0.56074452 0 7 0
1.2205771 0.84996414 -0.5414024 0 8 0
1.2369596 0.86137229 -0.50926465 0 9 0
1.2840346 0.89415359 -0.48838022 0 10 0
1.2943742 0.90135366 -0.45230862 0 11 0
1.321995 0.92058778 -0.42164454 0 12 0
1.3374981 0.93138349 -0.38629442 0 13 0
1.3687832 0.95316935 -0.35454547 0 14 0
1.3872671 0.96604079 -0.31840479 0 15 0
1.4171773 0.98686922 -0.283824 0 16 0
1.4252343 0.9924798 -0.24407393 0 17 0
1.4698427 1.0235434 -0.20933306 0 18 0
1.4958916 1.0416828 -0.17014576 0 19 0
1.5272505 1.0635201 -0.13010611 0 20 0
1.5499772 1.0793459 -0.087930597 0 21 0
1.5894376 1.1068248 -0.045032535 0 22 0
1.6145093 1.1242838 5.6166038e-05 0 23 0
1.6608367 1.1565444 0.04717106 0 24 0
1.6954669 1.1806597 0.096302494 0 25 0
1.7494693 1.2182648 0.14915918 0 26 0
1.7987992 1.2526163 0.20472534 0 27 0
1.8433658 1.2836508 0.26265973 0 28 0
1.9090495 1.3293905 0.32706359 0 29 0
1.939188 1.3503778 0.38850781 0 30 0
1.998688 1.3918114 0.4588818 0 31 0
0.85311013 0.61238879 -0.6227898 0 0 0
0.90212256 0.64757144 -0.62410295 0 1 0
0.96187645 0.69046456 -0.62964076 0 2 0
1.018495 0.73110712 -0.62972194 0 3 0
1.0733118 0.77045637 -0.62554383 0 4 0
1.1117392 0.79804063 -0.60936594 0 5 0
1.132336 0.81282568 -0.58217299 0 6 0
1.1634816 0.83518302 -0.55940664 0 7 0
1.1973903 0.85952371 -0.53651965 0 8 0
1.2257844 0.87990582 -0.5097968 0 9 0
1.2491966 0.89671195 -0.47996229 0 10 0
1.2833277 0.9212122 -0.45300978 0 11 0
1.3017761 0.93445504 -0.41941881 0 12 0
1.3253655 0.9513883 -0.38668376 0 13 0
1.3455983 0.96591198 -0.35208511 0 14 0
1.3659556 0.98052508 -0.31670219 0 15 0
1.4125822 1.0139951 -0.28578117 0 16 0
1.4194571 1.0189301 -0.24555701 0 17 0
1.4409827 1.0343817 -0.2073102 0 18 0
1.4874667 1.0677495 -0.17090833 0 19 0
1.5009539 1.077431 -0.12916645 0 20 0
1.5312488 1.0991776 -0.087751687 0 21 0
1.5656348 1.123861 -0.044809323 0 22 0
1.6000402 1.1485583 5.6228833e-05 0 23 0
1.6348095 1.1735166 0.046904102 0 24 0
1.6761758 1.2032107 0.096175119 0 25 0
1.7230253 1.2368407 0.14839877 0 26 0
1.7779815 1.2762899 0.20441423 0 27 0
1.8181605 1.3051317 0.26170328 0 28 0
1.8856605 1.3535852 0.32634237 0 29 0
1.9225124 1.3800387 0.38908452 0 30 0
1.9665225 1.4116305 0.45608911 0 31 0
0.8524099 0.63056588 -0.62880307 0 0 0
0.89814937 0.66440141 -0.62786901 0 1 0
0.94427407 0.69852191 -0.62459916 0 2 0
1.0011829 0.74062002 -0.62550843 0 3 0
1.0544599 0.78003138 -0.62100011 0 4 0
1.0922467 0.80798388 -0.60495877 0 5 0
1.1196495 0.82825506 -0.58168602 0 6 0
1.149943 0.8506645 -0.55869424 0 7 0
1.1781693 0.87154478 -0.5334422 0 8 0
1.2116739 0.89632958 -0.5092119 0 9 0
1.2338042 0.91270041 -0.47901854 0 10 0
1.2612746 0.93302149 -0.44989321 0 11 0
1.2870708 0.95210403 -0.41902876 0 12 0
1.3095995 0.96876955 -0.38608998 0 13 0
1.3295393 0.98351991 -0.35153064 0 14 0
1.3409371 0.99195147 -0.31416133 0 15 0
1.3733679 1.015942 -0.28076085 0 16 0
1.4017707 1.0369527 -0.24503991 0 17 0
1.4323387 1.0595653 -0.20822719 0 18 0
1.4519254 1.0740545 -0.1685738 0 19 0
1.4839199 1.0977222 -0.12903947 0 20 0
1.5177901 1.1227775 -0.087892376 0 21 0
1.5372045 1.1371392 -0.044456918 0 22 0
1.573796 1.1642077 5.5886438e-05 0 23 0
1.6107097 1.1915144 0.046697188 0 24 0
1.6442087 1.216295 0.095330067 0 25 0
1.6995941 1.2572662 0.1479155 0 26 0
1.736199 1.2843444 0.20170338 0 27 0
1.8008938 1.332202 0.26193577 0 28 0
1.8524692 1.3703548 0.32395953 0 29 0
1.8951088 1.4018971 0.38755983 0 30 0
1.924346 1.4235251 0.45098668 0 31 0
0.827438 0.63061368 -0.61697716 0 0 0
0.88195413 0.672162 -0.6232093 0 1 0
0.93420017 0.71198016 -0.62461257 0 2 0
0.98188007 0.74831831 -0.62007695 0 3 0
1.0336851 0.78780043 -0.61534303 0 4 0
1.0860134 0.8276813 -0.60800582 0 5 0
1.1064101 0.84322619 -0.58101875 0 6 0
1.1296493 0.86093742 -0.55476487 0 7 0
1.1577693 0.88236851 -0.52986979 0 8 0
1.2010589 0.91536063 -0.51020479 0 9 0
1.2187321 0.92882991 -0.47827953 0 10 0
1.2399347 0.94498897 -0.44706023 0 11 0
1.2729267 0.97013313 -0.41890183 0 12 0
1.2899332 0.98309422 -0.38440117 0 13 0
1.3147794 1.0020303 -0.35138428 0 14 0
1.3300606 1.0136764 -0.31498012 0 15 0
1.3531883 1.0313027 -0.27962458 0 16 0
1.3797253 1.0515274 -0.24379227 0 17 0
1.4110022 1.0753644 -0.20734179 0 18 0
1.4315125 1.0909958 -0.16799964 0 19 0
1.4544085 1.1084455 -0.12783977 0 20 0
1.480253 1.1281422 -0.08664488 0 21 0
1.5159791 1.1553701 -0.044316795 0 22 0
1.5405679 1.1741099 5.5297594e-05 0 23 0
1.5906519 1.2122804 0.046613965 0 24 0
1.6288574 1.2413979 0.095460445 0 25 0
1.6752371 1.2767451 0.14737104 0 26 0
1.7184459 1.3096758 0.20179805 0 27 0
1.7621313 1.3429697 0.25906721 0 28 0
1.825886 1.3915589 0.32276085 0 29 0
1.8686813 1.4241744 0.3862845 0 30 0
1.8976283 1.4462358 0.44953054 0 31 0
0.83900034 0.65861934 -0.63256311 0 0 0
0.87916934 0.69015223 -0.6281575 0 1 0
0.92609763 0.72699118 -0.62608844 0 2 0
0.97068119 0.76198947 -0.619829 0 3 0
1.0196193 0.80040616 -0.61372697 0 4 0
1.0662007 0.83697271 -0.60355872 0 5 0
1.0958676 0.86026144 -0.58188903 0 6 0
1.1157175 0.87584364 -0.55402279 0 7 0
1.1425881 0.89693731 -0.52874339 0 8 0
1.1719837 0.92001295 -0.50339621 0 9 0
1.2019589 0.94354361 -0.47694823 0 10 0
1.2102486 0.95005101 -0.44121462 0 11 0
1.2522321 0.98300827 -0.41667914 0 12 0
1.2710826 0.99780607 -0.38300052 0 13 0
1.2986857 1.0194746 -0.35094705 0 14 0
1.3220335 1.0378028 -0.31656456 0 15 0
1.3378047 1.0501832 -0.27952325 0 16 0
1.3640615 1.0707949 -0.24370776 0 17 0
1.3885466 1.0900159 -0.20631354 0 18 0
1.4086425 1.1057913 -0.16715607 0 19 0
1.4361144 1.1273568 -0.12763704 0 20 0
1.4665867 1.1512777 -0.086800613 0 21 0
1.4943957 1.173108 -0.044172183 0 22 0
1.5193864 1.1927258 5.5144443e-05 0 23 0
1.581638 1.2415935 0.046865806 0 24 0
1.5955 1.2524753 0.094546467 0 25 0
1.6559314 1.2999141 0.14729442 0 26 0
1.6948614 1.3304745 0.20124422 0 27 0
1.7481469 1.3723038 0.25987241 0 28 0
1.8007215 1.4135752 0.32185617 0 29 0
1.841978 1.4459616 0.38500339 0 30 0
1.8830225 1.4781818 0.45103645 0 31 0
0.81663841 0.66017181 -0.62276387 0 0 0
0.86893088 0.70244515 -0.6279617 0 1 0
0.91449445 0.73927885 -0.62533373 0 2 0
0.96314186 0.77860546 -0.62206733 0 3 0
1.0074618 0.81443381 -0.61336309 0 4 0
1.0554448 0.85322338 -0.60432154 0 5 0
1.0857733 0.87774098 -0.58314043 0 6 0
1.0979114 0.88755339 -0.55143279 0 7 0
1.1441656 0.92494535 -0.53554505 0 8 0
1.1612153 0.93872833 -0.50449049 0 9 0
1.1786401 0.95281458 -0.47305837 0 10 0
1.2075148 0.97615689 -0.44526616 0 11 0
1.2293166 0.99378151 -0.41374484 0 12 0
1.2474093 1.0084077 -0.38017753 0 13 0
1.2679906 1.0250456 -0.34658158 0 14 0
1.304785 1.0547904 -0.31601718 0 15 0
1.3192968 1.0665218 -0.27881724 0 16 0
1.3418434 1.0847484 -0.24248737 0 17 0
1.3595321 1.099048 -0.20431894 0 18 0
1.4000994 1.1318426 -0.16804752 0 19 0
1.4264191 1.1531196 -0.12822914 0 20 0
1.42637 1.1530799 -0.085388459 0 21 0
1.4713469 1.1894392 -0.043989617 0 22 0
1.5056949 1.2172061 5.5274188e-05 0 23 0
1.5389097 1.2440572 0.046122629 0 24 0
1.5672271 1.2669491 0.093936063 0 25 0
1.6205909 1.3100883 0.14580394 0 26 0
1.6763475 1.355162 0.20132846 0 27 0
1.7308378 1.3992121 0.26024988 0 28 0
1.774284 1.4343342 0.32076749 0 29 0
1.8233324 1.473985 0.3854765 0 30 0
1.840499 1.4878625 0.44590631 0 31 0
0.81503141 0.6783883 -0.62887883 0 0 0
0.86173803 0.71726435 -0.63011843 0 1 0
0.90157241 0.75042039 -0.62377852 0 2 0
0.95501345 0.79490185 -0.62410218 0 3 0
1.0029198 0.83477646 -0.617809 0 4 0
1.0359349 0.86225647 -0.60015577 0 5 0
1.0554081 0.87846494 -0.57352644 0 6 0
1.0875536 0.90522116 -0.55268162 0 7 0
1.1199083 0.93215138 -0.5303818 0 8 0
1.1394298 0.94840014 -0.50087214 0 9 0
1.1567484 0.96281517 -0.46975505 0 10 0
1.1831006 0.98474926 -0.44141585 0 11 0
1.2036287 1.0018358 -0.40988347 0 12 0
1.2363279 1.0290529 -0.38125029 0 13 0
1.2621835 1.0505737 -0.34906876 0 14 0
1.2835155 1.0683292 -0.31453708 0 15 0
1.30417 1.085521 -0.2788755 0 16 0
1.3240119 1.1020362 -0.24209076 0 17 0
1.345817 1.1201856 -0.20464644 0 18 0
1.3661728 1.1371288 -0.16591203 0 19 0
1.3947486 1.1609136 -0.12686287 0 20 0
1.4339163 1.1935148 -0.086853988 0 21 0
1.4553823 1.2113819 -0.044026203 0 22 0
1.4875008 1.2381157 5.5251192e-05 0 23 0
1.5079747 1.255157 0.045729239 0 24 0
1.5487905 1.2891299 0.093927354 0 25 0
1.5838839 1.3183397 0.14418438 0 26 0
1.6410183 1.3658954 0.19941305 0 27 0
1.6990464 1.4141948 0.25848684 0 28 0
1.7430265 1.4508015 0.31883809 0 29 0
1.7860858 1.4866418 0.3820616 0 30 0
1.8243672 1.5185051 0.447218 0 31 0
0.79570073 0.68181062 -0.62142974 0 0 0
0.84070498 0.72037333 -0.62221462 0 1 0
0.8880676 0.76095682 -0.621907 0 2 0
0.93965375 0.80515939 -0.6215322 0 3 0
0.9819718 0.84142035 -0.61226112 0 4 0
1.0219857 0.87570703 -0.59927469 0 5 0
1.0430274 0.89373702 -0.57369143 0 6 0
1.0687758 0.91579992 -0.54974407 0 7 0
1.1020961 0.94435108 -0.52829343 0 8 0
1.1323183 0.97024745 -0.50379908 0 9 0
1.1474532 0.98321617 -0.47164708 0 10 0
1.1713411 1.0036849 -0.44234309 0 11 0
1.1862137 1.0164288 -0.40886548 0 12 0
1.2131133 1.0394782 -0.37864086 0 13 0
1.246316 1.0679284 -0.3488721 0 14 0
1.2536345 1.0741994 -0.31095052 0 15 0
1.2879424 1.1035968 -0.27875471 0 16 0
1.2995704 1.1135606 -0.24051145 0 17 0
1.3276682 1.1376367 -0.20434186 0 18 0
1.3569418 1.1627203 -0.16679503 0 19 0
1.3786943 1.1813593 -0.12692764 0 20 0
1.4005814 1.2001137 -0.085866533 0 21 0
1.4340363 1.22878 -0.043908026 0 22 0
1.4567047 1.2482039 5.4765314e-05 0 23 0
1.5013802 1.286485 0.046082947 0 24 0
1.5320222 1.3127412 0.094040327 0 25 0
1.5664339 1.3422273 0.14432999 0 26 0
1.6206143 1.3886528 0.19932851 0 27 0
1.6633947 1.4253099 0.25614041 0 28 0
1.7138811 1.4685701 0.31731933 0 29 0
1.7561293 1.5047714 0.38022193 0 30 0
1.7990417 1.5415416 0.44637299 0 31 0
0.79058564 0.69729584 -0.62516564 0 0 0
0.83696026 0.73819822 -0.62719893 0 1 0
0.88815606 0.78335291 -0.62975651 0 2 0
0.92215466 0.81333959 -0.6175946 0 3 0
0.96578664 0.85182297 -0.60970926 0 4 0
1.0116984 0.89231706 -0.60067022 0 5 0
1.0274781 0.9062348 -0.57221484 0 6 0
1.0598629 0.93479812 -0.55198532 0 7 0
1.081315 0.9537189 -0.52482188 0 8 0
1.1044821 0.97415221 -0.49756688 0 9 0
1.1391231 1.0047055 -0.47408557 0 10 0
1.1483443 1.0128386 -0.43908834 0 11 0
1.1737093 1.0352105 -0.40962076 0 12 0
1.2079492 1.0654101 -0.38174972 0 13 0
1.2297808 1.0846655 -0.34855372 0 14 0
1.2316951 1.0863539 -0.30933386 0 15 0
1.2617677 1.1128781 -0.2765089 0 16 0
1.284551 1.1329728 -0.2407084 0 17 0
1.3056037 1.1515415 -0.20346192 0 18 0
1.332741 1.1754764 -0.16587143 0 19 0
1.3471357 1.1881725 -0.1255751 0 20 0
1.3780599 1.2154475 -0.08554361 0 21 0
1.3968313 1.2320039 -0.043304361 0 22 0
1.4342607 1.2650167 5.4596661e-05 0 23 0
1.4687299 1.2954184 0.04564523 0 24 0
1.5133111 1.3347391 0.094054848 0 25 0
1.5496707 1.3668082 0.14457323 0 26 0
1.6007328 1.411845 0.1993483 0 27 0
1.6439016 1.4499197 0.25630823 0 28 0
1.7010311 1.5003079 0.31888348 0 29 0
1.7369133 1.531956 0.38077003 0 30 0
1.7744449 1.5650589 0.4457826 0 31 0
0.782318 0.71016693 -0.62660182 0 0 0
0.81967944 0.74408263 -0.62216651 0 1 0
0.87720984 0.79630721 -0.63001221 0 2 0
0.9184463 0.83374053 -0.62303954 0 3 0
0.94557303 0.85836542 -0.60464269 0 4 0
0.99492389 0.9031648 -0.59832484 0 5 0
1.0211971 0.92701489 -0.57604748 0 6 0
1.0482744 0.95159495 -0.5529871 0 7 0
1.0712961 0.97249335 -0.52666122 0 8 0
1.09707 0.99589026 -0.50059819 0 9 0
1.1156788 1.0127828 -0.47031346 0 10 0
1.1364828 1.0316682 -0.44015417 0 11 0
1.161926 1.0547647 -0.41073528 0 12 0
1.1875308 1.0780081 -0.38013428 0 13 0
1.2014415 1.0906358 -0.34491077 0 14 0
1.2238135 1.1109445 -0.31131616 0 15 0
1.2426759 1.1280673 -0.27583519 0 16 0
1.2610832 1.1447769 -0.23935679 0 17 0
1.2832378 1.1648883 -0.20255408 0 18 0
1.3178238 1.1962844 -0.16612892 0 19 0
1.3336372 1.2106395 -0.12591921 0 20 0
1.3588451 1.2335225 -0.085438102 0 21 0
1.3856347 1.2578413 -0.043510947 0 22 0
1.4194026 1.2884949 5.4727512e-05 0 23 0
1.4456904 1.3123583 0.045508329 0 24 0
1.4971316 1.3590553 0.094248638 0 25 0
1.5311382 1.3899255 0.14468548 0 26 0
1.5703596 1.4255296 0.19808653 0 27 0
1.6226223 1.4729723 0.25625142 0 28 0
1.6645147 1.511001 0.31605998 0 29 0
1.7005403 1.5437042 0.37760147 0 30 0
1.7339299 1.5740143 0.44121906 0 31 0
0.76988381 0.71924466 -0.62482435 0 0 0
0.81314158 0.75965708 -0.62539321 0 1 0
0.859703 0.80315596 -0.62563109 0 2 0
0.90495759 0.84543395 -0.62203455 0 3 0
0.94809085 0.88573009 -0.61429656 0 4 0
0.9734683 0.90943831 -0.59318942 0 5 0
1.0149459 0.94818771 -0.58011752 0 6 0
1.0295448 0.96182644 -0.55031288 0 7 0
1.0471523 0.97827578 -0.52162224 0 8 0
1.0732397 1.0026473 -0.49622205 0 9 0
1.1001163 1.027756 -0.46990624 0 10 0
1.1137414 1.0404849 -0.43706968 0 11 0
1.1387367 1.0638362 -0.40787894 0 12 0
1.1641039 1.0875348 -0.37757942 0 13 0
1.1787308 1.1011997 -0.34288082 0 14 0
1.2076445 1.1282116 -0.31127909 0 15 0
1.2114648 1.1317805 -0.27247521 0 16 0
1.2554694 1.1728908 -0.24145296 0 17 0
1.2619978 1.1789899 -0.20184448 0 18 0
1.2881092 1.2033837 -0.16453753 0 19 0
1.3050051 1.2191683 -0.12485068 0 20 0
1.3369833 1.2490431 -0.085178897 0 21 0
1.3562793 1.2670699 -0.043154228 0 22 0
1.400923 1.3087772 5.4731681e-05 0 23 0
1.4221343 1.3285933 0.045360792 0 24 0
1.456717 1.3609014 0.092921175 0 25 0
1.5033157 1.404435 0.14394122 0 26 0
1.5430894 1.4415926 0.19722924 0 27 0
1.6026345 1.4972211 0.25645301 0 28 0
1.6357402 1.5281492 0.31471729 0 29 0
1.6798191 1.5693288 0.37794939 0 30 0
1.7107496 1.5982249 0.44109645 0 31 0
0.75942099 0.7301029 -0.6247502 0 0 0
0.8019982 0.77103639 -0.62524676 0 1 0
0.84374332 0.81116986 -0.62240243 0 2 0
0.90023249 0.86547822 -0.6272375 0 3 0
0.92499918 0.88928878 -0.60751992 0 4 0
0.95863676 0.92162776 -0.59212953 0 5 0
0.99952185 0.96093446 -0.57910383 0 6 0
1.01069 0.97167146 -0.54761261 0 7 0
1.0457979 1.005424 -0.52806216 0 8 0
1.0609031 1.019946 -0.49721712 0 9 0
1.0745317 1.0330484 -0.46524626 0 10 0
1.0958656 1.0535588 -0.43592793 0 11 0
1.1224972 1.0791621 -0.40755314 0 12 0
1.1398547 1.0958496 -0.37476337 0 13 0
1.1709312 1.1257265 -0.34526378 0 14 0
1.185264 1.1395059 -0.3096827 0 15 0
1.2008615 1.1545012 -0.27377903 0 16 0
1.234394 1.1867392 -0.24064191 0 17 0
1.2537607 1.2053581 -0.20326564 0 18 0
1.2736901 1.2245182 -0.16491765 0 19 0
1.2983383 1.2482148 -0.12590924 0 20 0
1.3192778 1.268346 -0.085198775 0 21 0
1.3434845 1.2916182 -0.043330926 0 22 0
1.369393 1.3165264 5.4230506e-05 0 23 0
1.3872952 1.3337376 0.044853874 0 24 0
1.4460394 1.3902138 0.093499802 0 25 0
1.4783239 1.421252 0.14348142 0 26 0
1.5231826 1.464379 0.19734369 0 27 0
1.5723835 1.5116804 0.25504851 0 28 0
1.6157967 1.5534174 0.31512588 0 29 0
1.654188 1.5903267 0.37726548 0 30 0
1.6763861 1.6116678 0.43813932 0 31 0
0.75139946 0.74337566 -0.62684029 0 0 0
0.79697436 0.78846389 -0.63006401 0 1 0
0.83029372 0.8214274 -0.62109059 0 2 0
0.87219238 0.86287868 -0.61624277 0 3 0
0.91989392 0.9100709 -0.61265951 0 4 0
0.94819027 0.93806505 -0.59390968 0 5 0
0.99482924 0.98420602 -0.58448714 0 6 0
1.0082215 0.99745518 -0.55395395 0 7 0
1.0148264 1.0039897 -0.51962656 0 8 0
1.0333873 1.0223523 -0.49112922 0 9 0
1.0637211 1.0523622 -0.46703961 0 10 0
1.0798501 1.0683188 -0.43559521 0 11 0
1.0928426 1.0811727 -0.40236375 0 12 0
1.1197994 1.1078416 -0.37334481 0 13 0
1.1423625 1.1301638 -0.34157479 0 14 0
1.1634583 1.1510344 -0.30825844 0 15 0
1.18635 1.1736816 -0.27427256 0 16 0
1.2109951 1.1980635 -0.23939887 0 17 0
1.2314264 1.2182766 -0.20245105 0 18 0
1.2527599 1.2393824 -0.16448772 0 19 0
1.2722617 1.2586759 -0.12511472 0 20 0
1.302703 1.2887921 -0.085310951 0 21 0
1.3164756 1.3024176 -0.043056663 0 22 0
1.3480768 1.3336813 5.4136784e-05 0 23 0
1.3913225 1.3764653 0.045616414 0 24 0
1.4104768 1.3954151 0.092482328 0 25 0
1.4565016 1.4409484 0.14335051 0 26 0
1.4979258 1.4819303 0.19679943 0 27 0
1.5437319 1.5272473 0.25392091 0 28 0
1.6013337 1.584234 0.31669518 0 29 0
1.6327426 1.6153075 0.3776089 0 30 0
1.6676509 1.649843 0.44198301 0 31 0
0.73908186 0.75242323 -0.625485 0 0 0
0.78203052 0.79614711 -0.62719464 0 1 0
0.81514096 0.82985526 -0.61857766 0 2 0
0.86977005 0.88547045 -0.62342232 0 3 0
0.90572679 0.92207623 -0.61195141 0 4 0
0.9321124 0.94893819 -0.59228605 0 5 0
0.96917129 0.98666602 -0.57765067 0 6 0
0.98460495 1.0023782 -0.548805 0 7 0
1.0051333 1.0232772 -0.52210939 0 8 0
1.0237024 1.0421815 -0.49356538 0 9 0
1.0563202 1.0753881 -0.4705002 0 10 0
1.0644287 1.083643 -0.43558663 0 11 0
1.0939782 1.1137258 -0.40860927 0 12 0
