# .PCD v0.7 - Point Cloud Data file format
VERSION 0.7
FIELDS x y z intensity ring time
SIZE 4 4 4 4 2 4
TYPE F F F F U F
COUNT 1 1 1 1 1 1
WIDTH 1222
HEIGHT 1
VIEWPOINT 0 0 0 1 0 0 0
POINTS 1222
DATA ascii
1.4876573 1.7487775 0.37747571 0 30 0
1.5117272 1.7770723 0.43957758 0 31 0
0.67253768 0.81390542 -0.62614989 0 0 0
0.71185184 0.86148345 -0.62806648 0 1 0
0.7506209 0.90840179 -0.62664205 0 2 0
0.79139304 0.95774424 -0.62403286 0 3 0
0.83366543 1.0089023 -0.61965346 0 4 0
0.83813369 1.0143098 -0.58588701 0 5 0
0.86908615 1.0517685 -0.56985575 0 6 0
0.88916534 1.0760684 -0.5452252 0 7 0
0.90606308 1.096518 -0.51776618 0 8 0
0.92002428 1.1134138 -0.4879863 0 9 0
0.94340229 1.141706 -0.462273 0 10 0
0.9721275 1.1764692 -0.43764153 0 11 0
0.98805296 1.1957421 -0.4059917 0 12 0
1.0005172 1.2108264 -0.37228036 0 13 0
1.0175241 1.2314082 -0.33954886 0 14 0
1.0498188 1.2704911 -0.31042317 0 15 0
1.0536275 1.2751006 -0.27185187 0 16 0
1.0745385 1.3004071 -0.23707041 0 17 0
1.0898089 1.3188872 -0.19995745 0 18 0
1.1157556 1.3502879 -0.16349721 0 19 0
1.128734 1.3659945 -0.12387946 0 20 0
1.1495198 1.3911494 -0.084013969 0 21 0
1.1812689 1.4295723 -0.043117344 0 22 0
1.214156 1.4693722 5.441617e-05 0 23 0
1.232321 1.4913555 0.045091312 0 24 0
1.2644403 1.5302262 0.092526644 0 25 0
1.2961943 1.568655 0.14237511 0 26 0
1.3409512 1.6228198 0.1966175 0 27 0
1.3989455 1.6930045 0.25680473 0 28 0
1.4373394 1.7394688 0.31724486 0 29 0
1.4650083 1.7729537 0.37812918 0 30 0
1.4848078 1.7969153 0.43918386 0 31 0
0.65258026 0.81317967 -0.61834228 0 0 0
0.69572985 0.86694837 -0.62472653 0 1 0
0.72538632 0.90390325 -0.61631334 0 2 0
0.77778381 0.96919566 -0.62417656 0 3 0
0.81364542 1.0138828 -0.61549652 0 4 0
0.82593948 1.0292025 -0.58760047 0 5 0
0.844486 1.0523132 -0.56354403 0 6 0
0.87698787 1.0928137 -0.54729348 0 7 0
0.89502335 1.1152878 -0.52052659 0 8 0
0.90551603 1.1283627 -0.48880741 0 9 0
0.92225432 1.1492203 -0.45992354 0 10 0
0.94178587 1.1735586 -0.43150002 0 11 0
0.96015686 1.1964506 -0.40152487 0 12 0
0.99578154 1.2408425 -0.37708822 0 13 0
0.99741328 1.2428758 -0.33873963 0 14 0
1.021407 1.2727743 -0.30737743 0 15 0
1.0366031 1.2917103 -0.27220184 0 16 0
1.0575528 1.3178155 -0.23746017 0 17 0
1.075165 1.3397622 -0.20076856 0 18 0
1.090924 1.3593996 -0.16269311 0 19 0
1.1189924 1.3943756 -0.12498796 0 20 0
1.1355824 1.4150484 -0.084466994 0 21 0
1.1688497 1.4565024 -0.043420538 0 22 0
1.1857003 1.4775001 5.4083121e-05 0 23 0
1.2137002 1.5123906 0.045197427 0 24 0
1.2481406 1.5553069 0.092953414 0 25 0
1.2768704 1.591107 0.14273947 0 26 0
1.328118 1.6549666 0.19818883 0 27 0
1.3795577 1.7190657 0.25773624 0 28 0
1.4246523 1.7752581 0.32002029 0 29 0
1.4465483 1.8025426 0.37998497 0 30 0
1.4718643 1.8340888 0.44307497 0 31 0
0.63988966 0.8211714 -0.61739147 0 0 0
0.67434329 0.86538577 -0.61658198 0 1 0
0.71923381 0.92299384 -0.62224692 0 2 0
0.76463842 0.98126161 -0.62483472 0 3 0
0.79583549 1.0212969 -0.61301935 0 4 0
0.82291305 1.0560455 -0.59614009 0 5 0
0.82754081 1.0619843 -0.56232226 0 6 0
0.85979295 1.1033736 -0.54636276 0 7 0
0.8823719 1.1323493 -0.5225414 0 8 0
0.88521379 1.1359962 -0.48657554 0 9 0
0.91627258 1.175854 -0.46528611 0 10 0
0.92427969 1.1861295 -0.43121365 0 11 0
0.95061159 1.2199212 -0.40479377 0 12 0
0.96830779 1.2426308 -0.3733815 0 13 0
0.97719967 1.2540418 -0.33793616 0 14 0
0.99357206 1.2750525 -0.30446193 0 15 0
1.014617 1.3020595 -0.27129456 0 16 0
1.032308 1.3247625 -0.23602526 0 17 0
1.0513918 1.3492528 -0.19991513 0 18 0
1.0651852 1.3669537 -0.16175593 0 19 0
1.0981939 1.4093138 -0.12490518 0 20 0
1.1270458 1.4463395 -0.085363135 0 21 0
1.1456776 1.4702498 -0.043337058 0 22 0
1.1754659 1.5084772 5.4595563e-05 0 23 0
1.1946497 1.5330957 0.045300536 0 24 0
1.226881 1.5744582 0.093038939 0 25 0
1.262688 1.6204095 0.14373212 0 26 0
1.3087887 1.6795704 0.19887148 0 27 0
1.3491926 1.731421 0.25666699 0 28 0
1.4033747 1.8009529 0.32099828 0 29 0
1.4237033 1.8270406 0.38081443 0 30 0
1.4449987 1.8543692 0.44293234 0 31 0
0.62850338 0.83081627 -0.61781597 0 0 0
0.68342108 0.90341175 -0.63664037 0 1 0
0.71181184 0.94094133 -0.62741351 0 2 0
0.74486595 0.98463547 -0.6201306 0 3 0
0.77359223 1.0226086 -0.60709828 0 4 0
0.80299902 1.0614814 -0.59265965 0 5 0
0.8125844 1.0741522 -0.562549 0 6 0
0.84115624 1.1119213 -0.54457772 0 7 0
0.86181104 1.1392248 -0.51996851 0 8 0
0.88229483 1.1663022 -0.49409658 0 9 0
0.89373744 1.1814281 -0.46238244 0 10 0
0.90425116 1.1953262 -0.42980769 0 11 0
0.92683208 1.2251759 -0.40209419 0 12 0
0.945207 1.2494656 -0.37133193 0 13 0
0.9626894 1.2725755 -0.33918256 0 14 0
0.98879474 1.307084 -0.30869937 0 15 0
1.000599 1.3226881 -0.27258068 0 16 0
1.0052344 1.3288155 -0.23415987 0 17 0
1.0282438 1.3592315 -0.19919255 0 18 0
1.0529554 1.3918978 -0.1629075 0 19 0
1.0765574 1.4230971 -0.1247483 0 20 0
1.0977668 1.4511337 -0.084710039 0 21 0
1.1276186 1.4905947 -0.043456547 0 22 0
1.1436653 1.5118068 5.4118063e-05 0 23 0
1.1812943 1.5615485 0.045636982 0 24 0
1.2156974 1.6070257 0.093925551 0 25 0
1.2389717 1.637792 0.14368622 0 26 0
1.28813 1.7027742 0.1994154 0 27 0
1.3239704 1.7501515 0.2566081 0 28 0
1.3807182 1.8251661 0.32175857 0 29 0
1.3997679 1.8503478 0.3814573 0 30 0
1.4268117 1.886097 0.44558704 0 31 0
0.62309933 0.84864855 -0.62438035 0 0 0
0.66180384 0.90136331 -0.62845695 0 1 0
0.69314635 0.94405115 -0.6228078 0 2 0
0.73314774 0.99853224 -0.62221003 0 3 0
0.76560736 1.0427415 -0.61248213 0 4 0
0.78287709 1.0662626 -0.58901238 0 5 0
0.80113262 1.0911263 -0.56537521 0 6 0
0.82464093 1.123144 -0.54423755 0 7 0
0.84117818 1.1456674 -0.51736069 0 8 0
0.85506493 1.1645809 -0.48813242 0 9 0
0.8779068 1.1956911 -0.46299922 0 10 0
0.88681883 1.2078291 -0.42969516 0 11 0
0.90417862 1.2314728 -0.39987239 0 12 0
0.93140119 1.2685493 -0.37300321 0 13 0
0.94772422 1.290781 -0.34038451 0 14 0
0.94993889 1.2937974 -0.3023192 0 15 0
0.97680616 1.33039 -0.2712588 0 16 0
0.99754947 1.358642 -0.23687546 0 17 0
1.0218337 1.3917166 -0.20178911 0 18 0
1.0371678 1.4126014 -0.16357638 0 19 0
1.0575818 1.4404048 -0.12492573 0 20 0
1.0824003 1.474207 -0.085143827 0 21 0
1.1064488 1.5069606 -0.043467514 0 22 0
1.1324784 1.5424124 5.4627795e-05 0 23 0
1.1604639 1.5805283 0.045701548 0 24 0
1.1890007 1.6193947 0.093644194 0 25 0
1.2274803 1.6718031 0.14511381 0 26 0
1.2727032 1.7333958 0.20084758 0 27 0
1.3080802 1.7815785 0.25844425 0 28 0
1.3540531 1.8441926 0.32166308 0 29 0
1.3848909 1.886193 0.38472104 0 30 0
1.4105073 1.9210821 0.44903657 0 31 0
0.61190802 0.85890889 -0.62542123 0 0 0
0.64607358 0.90686554 -0.62578148 0 1 0
0.68122452 0.95620543 -0.62432957 0 2 0
0.7127248 1.000421 -0.6169669 0 3 0
0.75409371 1.0584887 -0.61532873 0 4 0
0.76146281 1.0688325 -0.58435136 0 5 0
0.7910834 1.1104096 -0.5694415 0 6 0
0.80405045 1.128611 -0.5412544 0 7 0
0.82122809 1.1527224 -0.51518565 0 8 0
0.84608573 1.1876141 -0.49266019 0 9 0
0.85506803 1.200222 -0.45996737 0 10 0
0.88627875 1.2440312 -0.43801644 0 11 0
0.8976469 1.2599882 -0.40491813 0 12 0
0.91145945 1.2793763 -0.37231255 0 13 0
0.93348044 1.3102862 -0.34196961 0 14 0
0.94728935 1.3296691 -0.30750149 0 15 0
0.96171838 1.3499225 -0.27240676 0 16 0
0.97642112 1.3705602 -0.23649247 0 17 0
1.008085 1.4150053 -0.20305288 0 18 0
1.0185159 1.4296468 -0.16384527 0 19 0
1.042536 1.4633627 -0.12560979 0 20 0
1.0654433 1.4955167 -0.085485041 0 21 0
1.0786178 1.5140092 -0.043221075 0 22 0
1.1095616 1.5574437 5.4592085e-05 0 23 0
1.1508212 1.615358 0.046227627 0 24 0
1.1749911 1.6492842 0.0943904 0 25 0
1.2056473 1.6923151 0.14538147 0 26 0
1.25775 1.7654495 0.20245491 0 27 0
1.2952682 1.818112 0.26102778 0 28 0
1.3350842 1.874 0.32349584 0 29 0
1.3496672 1.8944695 0.38242966 0 30 0
1.3899151 1.9509639 0.45132476 0 31 0
0.60560292 0.87633348 -0.63173252 0 0 0
0.62933761 0.91067868 -0.62213308 0 1 0
0.66934329 0.96856856 -0.62608224 0 2 0
0.71735227 1.0380396 -0.63376945 0 3 0
0.74146497 1.0729318 -0.61749196 0 4 0
0.75058728 1.0861322 -0.58787555 0 5 0
0.76681399 1.1096129 -0.56334662 0 6 0
0.78608829 1.1375036 -0.54006779 0 7 0
0.81020993 1.1724087 -0.51874793 0 8 0
0.82628793 1.1956742 -0.49104726 0 9 0
0.84383512 1.2210658 -0.46327916 0 10 0
0.86674291 1.2542144 -0.43718898 0 11 0
0.88112438 1.2750249 -0.40565583 0 12 0
0.89503205 1.2951499 -0.37313649 0 13 0
0.91658014 1.3263309 -0.34269798 0 14 0
0.91973919 1.3309022 -0.30471095 0 15 0
0.94127095 1.3620596 -0.27210933 0 16 0
0.96089703 1.3904593 -0.23752855 0 17 0
0.9865669 1.4276048 -0.20281373 0 18 0
0.99146777 1.4346966 -0.16278093 0 19 0
1.0255468 1.4840103 -0.12610918 0 20 0
1.0443785 1.5112606 -0.085521735 0 21 0
1.0658573 1.5423415 -0.043589901 0 22 0
1.0894238 1.5764431 5.470587e-05 0 23 0
1.1224884 1.624289 0.046018708 0 24 0
1.1612525 1.6803824 0.095209159 0 25 0
1.196725 1.7317126 0.14727937 0 26 0
1.2305421 1.7806473 0.20215721 0 27 0
1.2728226 1.8418292 0.26179042 0 28 0
1.312126 1.898703 0.32448485 0 29 0
1.3525102 1.9571406 0.39113283 0 30 0
1.3672789 1.9785116 0.45312375 0 31 0
0.5845831 0.87235272 -0.62276715 0 0 0
0.61561918 0.91866672 -0.62150675 0 1 0
0.65281308 0.97416991 -0.62359905 0 2 0
0.69653827 1.0394194 -0.62846047 0 3 0
0.72331226 1.0793732 -0.61517775 0 4 0
0.73383057 1.0950694 -0.58696759 0 5 0
0.75854379 1.131948 -0.56911552 0 6 0
0.77294767 1.1534425 -0.54232699 0 7 0
0.78593022 1.1728158 -0.51389796 0 8 0
0.81183887 1.2114785 -0.49271512 0 9 0
0.82938099 1.2376559 -0.46502188 0 10 0
0.84317338 1.2582377 -0.43434009 0 11 0
0.85785043 1.2801398 -0.40333527 0 12 0
0.88344669 1.3183362 -0.37613487 0 13 0
0.89944851 1.3422152 -0.34344053 0 14 0
0.90234333 1.3465351 -0.30530179 0 15 0
0.92053497 1.3736818 -0.27177107 0 16 0
0.93868577 1.4007676 -0.23696998 0 17 0
0.9604519 1.4332484 -0.20164181 0 18 0
0.9768042 1.4576503 -0.16378213 0 19 0
1.0036653 1.4977342 -0.12604171 0 20 0
1.0293934 1.5361274 -0.086086318 0 21 0
1.0495378 1.5661881 -0.043834798 0 22 0
1.0870422 1.6221546 5.5746499e-05 0 23 0
1.110888 1.6577388 0.046511136 0 24 0
1.1426704 1.7051666 0.095676921 0 25 0
1.1747359 1.7530167 0.14764607 0 26 0
1.2138577 1.8113968 0.20365481 0 27 0
1.2473649 1.8613985 0.26200736 0 28 0
1.2977313 1.9365585 0.32774627 0 29 0
1.3166213 1.9647474 0.38884699 0 30 0
1.3488004 2.0127671 0.45650077 0 31 0
0.57589769 0.88657153 -0.62696898 0 0 0
0.60602123 0.93294549 -0.62523437 0 1 0
0.6351279 0.97775406 -0.6200105 0 2 0
0.68032742 1.0473369 -0.62729561 0 3 0
0.70893025 1.0913699 -0.61616868 0 4 0
0.72350943 1.1138139 -0.59140331 0 5 0
0.74232292 1.1427766 -0.56915945 0 6 0
0.75831151 1.1673903 -0.54372591 0 7 0
0.76545584 1.1783887 -0.51148671 0 8 0
0.78377181 1.2065855 -0.48611271 0 9 0
0.80944026 1.246101 -0.46379429 0 10 0
0.81924772 1.2611992 -0.43127033 0 11 0
0.84172893 1.2958081 -0.40443447 0 12 0
0.85840088 1.321474 -0.37348634 0 13 0
0.8775062 1.3508857 -0.34241024 0 14 0
0.89357573 1.3756243 -0.30896565 0 15 0
0.91554618 1.4094468 -0.27622595 0 16 0
0.92299438 1.420913 -0.23811866 0 17 0
0.95029801 1.4629459 -0.20388538 0 18 0
0.96127206 1.47984 -0.16471253 0 19 0
0.98707819 1.5195675 -0.12667714 0 20 0
1.0038279 1.5453529 -0.08578933 0 21 0
1.0301691 1.5859044 -0.043969423 0 22 0
1.0606827 1.6328788 5.5587607e-05 0 23 0
1.0899689 1.6779637 0.046636086 0 24 0
1.1181619 1.7213656 0.095678017 0 25 0
1.1573488 1.7816923 0.14865078 0 26 0
1.1879289 1.8287691 0.20367543 0 27 0
1.2288558 1.8917745 0.26378021 0 28 0
1.2799734 1.970468 0.3303507 0 29 0
1.3042592 2.0078549 0.39364344 0 30 0
1.332545 2.0513999 0.4608897 0 31 0
0.56385952 0.89585006 -0.62775874 0 0 0
0.59255749 0.94144493 -0.62518233 0 1 0
0.62101042 0.98665047 -0.61995184 0 2 0
0.66164643 1.0512122 -0.62388051 0 3 0
0.6829471 1.0850543 -0.60702187 0 4 0
0.71021211 1.1283726 -0.59367514 0 5 0
0.72186172 1.1468812 -0.56599981 0 6 0
0.73236448 1.1635678 -0.53700811 0 7 0
0.75711066 1.2028841 -0.51736224 0 8 0
0.78144592 1.2415476 -0.49564123 0 9 0
0.79084343 1.2564781 -0.46339598 0 10 0
0.81114358 1.2887306 -0.43666986 0 11 0
0.8212536 1.3047932 -0.40352866 0 12 0
0.83283418 1.3231924 -0.37056491 0 13 0
0.85420293 1.3571426 -0.34086213 0 14 0
0.87604356 1.3918426 -0.30976024 0 15 0
0.89442331 1.421044 -0.27596149 0 16 0
0.89979076 1.4295717 -0.23738709 0 17 0
0.93070257 1.4786838 -0.20420122 0 18 0
0.94339097 1.498843 -0.16530775 0 19 0
0.971591 1.5436467 -0.12751208 0 20 0
0.99048531 1.5736656 -0.086565182 0 21 0
1.0102082 1.6050011 -0.044093475 0 22 0
1.0395246 1.6515783 5.5711957e-05 0 23 0
1.0765839 1.7104576 0.047106091 0 24 0
1.1088593 1.7617362 0.097029798 0 25 0
1.1281492 1.7923836 0.14818037 0 26 0
1.1729721 1.8635974 0.20566343 0 27 0
1.2112153 1.9243575 0.26587883 0 28 0
1.2636613 2.0076828 0.33352327 0 29 0
1.2904376 2.0502245 0.39828807 0 30 0
1.3062294 2.075314 0.46201462 0 31 0
0.55616832 0.91233861 -0.63366973 0 0 0
0.573587 0.94091219 -0.61931312 0 1 0
0.60780668 0.99704617 -0.62095386 0 2 0
0.64350373 1.0556036 -0.62095666 0 3 0
0.6685437 1.0966792 -0.60810965 0 4 0
0.69280487 1.1364772 -0.5926612 0 5 0
0.70582557 1.1578364 -0.56636244 0 6 0
0.72528058 1.1897503 -0.54424495 0 7 0
0.74577498 1.2233694 -0.52152842 0 8 0
0.75511372 1.2386887 -0.49013492 0 9 0
0.77452898 1.2705375 -0.46444494 0 10 0
0.78311694 1.2846251 -0.43143651 0 11 0
0.80568039 1.3216382 -0.40513027 0 12 0
0.8241905 1.3520021 -0.37529099 0 13 0
0.8359496 1.3712919 -0.34137568 0 14 0
0.85636705 1.4047847 -0.30988085 0 15 0
0.8744638 1.4344705 -0.2761099 0 16 0
0.8939513 1.4664378 -0.2413594 0 17 0
0.9043237 1.4834527 -0.20305145 0 18 0
0.92806309 1.5223948 -0.16642316 0 19 0
0.94551367 1.5510207 -0.12699027 0 20 0
0.96746045 1.5870222 -0.0865293 0 21 0
1.0044008 1.6476194 -0.044864751 0 22 0
1.0231838 1.6784308 5.6117991e-05 0 23 0
1.0644732 1.7461618 0.047664896 0 24 0
1.0821834 1.7752137 0.096909046 0 25 0
1.1150445 1.8291192 0.14988257 0 26 0
1.1473759 1.8821557 0.20587799 0 27 0
1.194103 1.9588066 0.26824954 0 28 0
1.2414929 2.036545 0.33533159 0 29 0
1.2594819 2.0660543 0.39782038 0 30 0
1.2927243 2.120585 0.46792576 0 31 0
0.53471506 0.90607476 -0.62393934 0 0 0
0.57448161 0.97345912 -0.63525826 0 1 0
0.59448183 1.0073495 -0.62200755 0 2 0
0.63208878 1.0710745 -0.62467128 0 3 0
0.64666927 1.0957812 -0.60241747 0 4 0
0.67029434 1.1358138 -0.58725178 0 5 0
0.6896919 1.1686829 -0.56678116 0 6 0
0.70610291 1.1964915 -0.54264975 0 7 0
0.72045088 1.2208041 -0.51598585 0 8 0
0.74151534 1.2564979 -0.4929316 0 9 0
0.75508195 1.2794865 -0.46371797 0 10 0
0.76928735 1.3035575 -0.43405238 0 11 0
0.7817896 1.3247427 -0.40261045 0 12 0
0.80506343 1.3641801 -0.37543425 0 13 0
0.8265149 1.4005296 -0.3456738 0 14 0
0.83593422 1.4164907 -0.30979195 0 15 0
0.85796714 1.4538255 -0.2774432 0 16 0
0.8717919 1.4772515 -0.2410607 0 17 0
0.88735729 1.5036271 -0.20405348 0 18 0
0.91333121 1.5476398 -0.16773659 0 19 0
0.93475294 1.583939 -0.12857683 0 20 0
0.95652485 1.6208315 -0.087617226 0 21 0
0.97316903 1.6490351 -0.044519443 0 22 0
1.0040021 1.7012817 5.6395744e-05 0 23 0
1.0369862 1.7571734 0.047555443 0 24 0
1.0690447 1.8114965 0.098044358 0 25 0
1.0963475 1.8577608 0.1509282 0 26 0
1.1386106 1.9293758 0.20923899 0 27 0
1.1813986 2.0018802 0.27180469 0 28 0
1.2242477 2.0744879 0.33865914 0 29 0
1.2469696 2.1129901 0.40337986 0 30 0
1.2687898 2.1499646 0.4703531 0 31 0
0.52457345 0.91868007 -0.62738484 0 0 0
0.54609281 0.95636672 -0.61893988 0 1 0
0.58399165 1.0227386 -0.6262843 0 2 0
0.61133498 1.0706246 -0.61924213 0 3 0
0.63669717 1.1150411 -0.60793346 0 4 0
0.66148412 1.1584502 -0.59399939 0 5 0
0.67878091 1.188742 -0.57173884 0 6 0
0.68882126 1.2063255 -0.54258269 0 7 0
0.70229381 1.2299199 -0.5155372 0 8 0
0.71908379 1.259324 -0.4899523 0 9 0
0.73047531 1.2792739 -0.45980442 0 10 0
0.75344044 1.3194925 -0.43572274 0 11 0
0.76449281 1.3388484 -0.40353048 0 12 0
0.78053218 1.3669379 -0.37308034 0 13 0
0.80418676 1.4083639 -0.34473109 0 14 0
0.81842101 1.4332923 -0.3108727 0 15 0
0.84368694 1.4775401 -0.27963564 0 16 0
0.85303241 1.4939069 -0.24176137 0 17 0
0.86939096 1.5225554 -0.20491245 0 18 0
0.88776976 1.554742 -0.16711201 0 19 0
0.91646105 1.6049887 -0.12920748 0 20 0
0.93534464 1.6380594 -0.087815806 0 21 0
0.96358556 1.6875174 -0.045181379 0 22 0
0.98484516 1.7247492 5.6700574e-05 0 23 0
1.0101308 1.7690315 0.047480203 0 24 0
1.048577 1.8363619 0.098567732 0 25 0
1.0724249 1.8781266 0.15132017 0 26 0
1.1091619 1.9424636 0.20891523 0 27 0
1.1643296 2.0390785 0.27456439 0 28 0
1.1926545 2.0886836 0.33815509 0 29 0
1.2304527 2.1548791 0.40797263 0 30 0
1.2599032 2.2064555 0.47871748 0 31 0
0.51008552 0.92376459 -0.62580699 0 0 0
0.53607899 0.97083879 -0.62327617 0 1 0
0.56665123 1.0262051 -0.62337649 0 2 0
0.59231472 1.0726817 -0.61546516 0 3 0
0.62121743 1.1250244 -0.60846621 0 4 0
0.63609725 1.1519718 -0.585949 0 5 0
0.65947205 1.1943035 -0.5698154 0 6 0
0.67703128 1.2261033 -0.54706365 0 7 0
0.69283938 1.2547318 -0.5217272 0 8 0
0.70912361 1.2842225 -0.49563956 0 9 0
0.71895504 1.3020272 -0.46423626 0 10 0
0.73355961 1.3284761 -0.43517753 0 11 0
0.74669278 1.3522602 -0.40431011 0 12 0
0.76129276 1.3787007 -0.3732785 0 13 0
0.78630614 1.424 -0.34576812 0 14 0
0.80474883 1.4573997 -0.31357101 0 15 0
0.81726748 1.4800709 -0.27787223 0 16 0
0.84058094 1.5222917 -0.2443828 0 17 0
0.85345733 1.5456108 -0.20635015 0 18 0
0.87131786 1.5779562 -0.16824944 0 19 0
0.89259011 1.6164802 -0.12909085 0 20 0
0.91787511 1.6622713 -0.088400416 0 21 0
0.9481076 1.7170223 -0.045603327 0 22 0
0.97442168 1.7646772 5.7548783e-05 0 23 0
0.99588239 1.8035425 0.048018958 0 24 0
1.0287091 1.8629916 0.099196598 0 25 0
1.0626588 1.9244745 0.15381315 0 26 0
1.0974483 1.9874784 0.21204548 0 27 0
1.1430919 2.0701389 0.27651528 0 28 0
1.1889415 2.1531725 0.34580517 0 29 0
1.2150093 2.2003813 0.41325247 0 30 0
1.2457124 2.2559845 0.48554516 0 31 0
0.49499947 0.9275732 -0.62352341 0 0 0
0.52356392 0.98109972 -0.6249885 0 1 0
0.55348736 1.0371729 -0.62516242 0 2 0
0.58731061 1.1005539 -0.62656975 0 3 0
0.60355419 1.1309925 -0.60695952 0 4 0
0.61755592 1.1572301 -0.5840677 0 5 0
0.64205676 1.203142 -0.56958932 0 6 0
0.65482253 1.2270637 -0.54325449 0 7 0
0.67897886 1.2723298 -0.52494979 0 8 0
0.68706298 1.2874786 -0.49305025 0 9 0
0.70272827 1.3168335 -0.46588138 0 10 0
0.72492903 1.3584353 -0.44154719 0 11 0
0.73121989 1.3702236 -0.40651003 0 12 0
0.74721301 1.4001929 -0.37616318 0 13 0
0.76560122 1.4346503 -0.34565789 0 14 0
0.78084821 1.4632214 -0.31238684 0 15 0
0.79771596 1.4948298 -0.27847087 0 16 0
0.82288033 1.541985 -0.2456283 0 17 0
0.8314696 1.5580803 -0.20640486 0 18 0
0.85417885 1.6006348 -0.16934659 0 19 0
0.87648177 1.642428 -0.13014781 0 20 0
0.90455127 1.695027 -0.089444682 0 21 0
0.92561364 1.7344955 -0.045710847 0 22 0
0.95438939 1.7884181 5.7871592e-05 0 23 0
0.97895885 1.8344585 0.048464056 0 24 0
1.0106041 1.8937582 0.10005432 0 25 0
1.0368351 1.942912 0.15408485 0 26 0
1.0879589 2.0387125 0.21582812 0 27 0
1.1271608 2.1121721 0.27994612 0 28 0
1.1683129 2.1892867 0.34888378 0 29 0
1.1987194 2.2462649 0.41860455 0 30 0
1.231105 2.306952 0.49267158 0 31 0
0.48247814 0.93612415 -0.62456524 0 0 0
0.51049787 0.99048913 -0.62625092 0 1 0
0.54056233 1.0488214 -0.62745577 0 2 0
0.56119454 1.088853 -0.61527199 0 3 0
0.58743429 1.1397643 -0.60709244 0 4 0
0.60573983 1.1752815 -0.58874214 0 5 0
0.63066244 1.2236373 -0.57495975 0 6 0
0.64072526 1.2431617 -0.54626536 0 7 0
0.65493417 1.2707305 -0.52036887 0 8 0
0.66932476 1.2986517 -0.49360964 0 9 0
0.68648911 1.3319546 -0.4677068 0 10 0
0.69603342 1.3504729 -0.43567622 0 11 0
0.71686006 1.3908815 -0.40955263 0 12 0
0.7246117 1.4059217 -0.37487745 0 13 0
0.74337131 1.4423199 -0.34490681 0 14 0
0.76895988 1.4919679 -0.31614181 0 15 0
0.7880972 1.5290989 -0.28272447 0 16 0
0.79709375 1.5465543 -0.24451371 0 17 0
0.81324792 1.5778973 -0.20746681 0 18 0
0.83452725 1.6191844 -0.17002793 0 19 0
0.85492605 1.6587629 -0.13045917 0 20 0
0.8834064 1.7140217 -0.08977057 0 21 0
0.91049445 1.766579 -0.046208188 0 22 0
0.93338585 1.8109939 5.8163849e-05 0 23 0
0.96148002 1.8655034 0.048915636 0 24 0
0.99404448 1.9286863 0.10113762 0 25 0
1.0230418 1.9849482 0.15624127 0 26 0
1.0652205 2.0667851 0.21716367 0 27 0
1.1087599 2.1512618 0.2829946 0 28 0
1.1531453 2.2373803 0.35388139 0 29 0
1.1817331 2.2928476 0.42408994 0 30 0
1.2233682 2.3736296 0.50312012 0 31 0
0.47435668 0.95364028 -0.631657 0 0 0
0.49055678 0.98620874 -0.61904162 0 1 0
0.52885759 1.0632081 -0.63146925 0 2 0
0.54942697 1.1045605 -0.61964053 0 3 0
0.56929177 1.1444966 -0.60521078 0 4 0
0.5883314 1.1827736 -0.58821654 0 5 0
0.60752815 1.2213664 -0.5697484 0 6 0
0.62875146 1.2640336 -0.5514257 0 7 0
0.64194965 1.2905669 -0.52467549 0 8 0
0.65276206 1.3123041 -0.49519679 0 9 0
0.66879523 1.3445369 -0.46871555 0 10 0
0.67886156 1.3647741 -0.43711039 0 11 0
0.69655663 1.4003481 -0.40936244 0 12 0
0.7125833 1.4325678 -0.37922397 0 13 0
0.7302115 1.4680073 -0.34851444 0 14 0
0.74769682 1.5031596 -0.31621316 0 15 0
0.76656967 1.5411013 -0.282886 0 16 0
0.78849161 1.5851729 -0.24880955 0 17 0
0.8003875 1.6090883 -0.21004006 0 18 0
0.82108098 1.6506901 -0.17208456 0 19 0
0.83947468 1.6876686 -0.13177404 0 20 0
0.86188006 1.732712 -0.090094119 0 21 0
0.88662112 1.7824512 -0.046286661 0 22 0
0.9141317 1.8377581 5.8597197e-05 0 23 0
0.94409615 1.8979981 0.049408287 0 24 0
0.97473508 1.9595942 0.10201632 0 25 0
1.0118349 2.034179 0.15896012 0 26 0
1.0533471 2.1176348 0.22089979 0 27 0
1.1075805 2.2266648 0.29079849 0 28 0
1.1352175 2.2822261 0.3583678 0 29 0
1.171905 2.3559821 0.43262056 0 30 0
1.2181429 2.4489379 0.51533413 0 31 0
0.45458078 0.94765913 -0.62332171 0 0 0
0.47860685 0.99774599 -0.62191981 0 1 0
0.50978655 1.0627459 -0.62679678 0 2 0
0.53384793 1.1129065 -0.61997235 0 3 0
0.55161369 1.1499424 -0.60385352 0 4 0
0.56714064 1.1823113 -0.58388972 0 5 0
0.58437943 1.2182488 -0.56433433 0 6 0
0.60883009 1.2692208 -0.54983073 0 7 0
0.62284708 1.2984419 -0.52419895 0 8 0
0.6410163 1.336319 -0.5007453 0 9 0
0.64316154 1.3407912 -0.46415302 0 10 0
0.65729433 1.3702537 -0.4358075 0 11 0
0.67355746 1.4041573 -0.40761587 0 12 0
0.69514847 1.4491677 -0.3809453 0 13 0
0.70634693 1.4725131 -0.34714833 0 14 0
0.73063827 1.5231529 -0.31818649 0 15 0
0.74795055 1.5592436 -0.28422192 0 16 0
0.7652815 1.5953732 -0.24866581 0 17 0
0.77584279 1.6173903 -0.20965269 0 18 0
0.80514228 1.6784706 -0.17376146 0 19 0
0.81632841 1.7017902 -0.13195083 0 20 0
0.84920365 1.7703247 -0.091408454 0 21 0
0.87504929 1.8242048 -0.047040857 0 22 0
0.89809096 1.8722395 5.9280697e-05 0 23 0
0.91711771 1.9119045 0.049423508 0 24 0
0.94896317 1.9782922 0.10227214 0 25 0
0.99855858 2.0816832 0.16153885 0 26 0
1.0318424 2.1510694 0.22282404 0 27 0
1.0942094 2.2810853 0.29582998 0 28 0
1.1205925 2.3360858 0.36426923 0 29 0
1.1722021 2.4436758 0.44559687 0 30 0
1.2246562 2.5530264 0.53349435 0 31 0
0.44199488 0.95628256 -0.62476856 0 0 0
0.46875182 1.0141728 -0.62791258 0 1 0
0.49186984 1.06419 -0.62343222 0 2 0
0.52151191 1.1283225 -0.62433785 0 3 0
0.53905958 1.1662878 -0.60832274 0 4 0
0.56270313 1.2174422 -0.59720045 0 5 0
0.5783354 1.2512635 -0.57573426 0 6 0
0.59348536 1.2840413 -0.55251443 0 7 0
0.60483479 1.3085965 -0.5247497 0 8 0
0.61451864 1.329548 -0.49486139 0 9 0
0.63121128 1.3656636 -0.46958753 0 10 0
0.64520609 1.3959422 -0.44099531 0 11 0
0.65354395 1.4139818 -0.40771055 0 12 0
0.67461872 1.4595783 -0.38110459 0 13 0
0.69392073 1.5013394 -0.35156661 0 14 0
0.70951682 1.5350825 -0.31852442 0 15 0
0.72818935 1.5754815 -0.28525269 0 16 0
0.74809378 1.618546 -0.25058302 0 17 0
0.76328641 1.6514162 -0.21262532 0 18 0
0.78844327 1.7058445 -0.17540903 0 19 0
0.80142516 1.7339317 -0.13353984 0 20 0
0.82816583 1.7917867 -0.091895141 0 21 0
0.85245413 1.8443359 -0.047240496 0 22 0
0.87533379 1.8938373 5.9561742e-05 0 23 0
0.90705794 1.9624745 0.050389986 0 24 0
0.93375134 2.0202272 0.10373849 0 25 0
0.97683758 2.113447 0.16290204 0 26 0
1.0164495 2.1991496 0.22627428 0 27 0
1.0683212 2.3113773 0.29774487 0 28 0
1.1235511 2.4308708 0.37650293 0 29 0
1.1673676 2.5256701 0.45745453 0 30 0
1.7933679 3.8800595 0.80535191 0 31 0
0.4304792 0.96749061 -0.62800115 0 0 0
0.45269752 1.0174257 -0.62585062 0 1 0
0.48321798 1.0860196 -0.63210398 0 2 0
0.50185114 1.1278971 -0.62006432 0 3 0
0.5273695 1.185249 -0.61421257 0 4 0
0.54604971 1.2272323 -0.59810764 0 5 0
0.56047612 1.2596554 -0.57584524 0 6 0
0.57643741 1.2955278 -0.55385 0 7 0
0.58798671 1.3214846 -0.52648902 0 8 0
0.60052216 1.3496577 -0.49909583 0 9 0
0.61737055 1.3875239 -0.47401717 0 10 0
0.6296649 1.4151553 -0.44417223 0 11 0
0.64114195 1.4409496 -0.41279811 0 12 0
0.6565612 1.4756038 -0.38279596 0 13 0
0.6685164 1.5024729 -0.34955552 0 14 0
0.69044334 1.5517532 -0.31990016 0 15 0
0.7138924 1.6044543 -0.28861874 0 16 0
0.72480643 1.6289833 -0.25056708 0 17 0
0.74706453 1.6790079 -0.21477906 0 18 0
0.76460445 1.7184284 -0.17555965 0 19 0
0.78412068 1.7622905 -0.13484572 0 20 0
0.80665112 1.812927 -0.092377745 0 21 0
0.83208179 1.8700819 -0.047590014 0 22 0
0.85753429 1.9272856 6.02215e-05 0 23 0
0.87802416 1.9733361 0.050341025 0 24 0
0.9139725 2.0541289 0.10479684 0 25 0
0.95614654 2.1489141 0.16456406 0 26 0
1.0132233 2.2771926 0.23278819 0 27 0
1.0525806 2.3656471 0.30276397 0 28 0
1.1150304 2.5060012 0.38562799 0 29 0
1.2253064 2.7538438 0.49555451 0 30 0
1.69437 3.8080518 0.78529161 0 31 0
0.41333076 0.96593958 -0.62309033 0 0 0
0.4395996 1.027329 -0.62800759 0 1 0
0.46019754 1.0754656 -0.62206358 0 2 0
0.49176517 1.1492381 -0.62786257 0 3 0
0.50984484 1.1914897 -0.61360198 0 4 0
0.52924412 1.2368251 -0.59902954 0 5 0
0.54610223 1.2762219 -0.57978588 0 6 0
0.56259829 1.3147726 -0.55857748 0 7 0
0.57065642 1.3336041 -0.52800924 0 8 0
0.58927339 1.3771114 -0.50607717 0 9 0
0.59884149 1.3994718 -0.47512195 0 10 0
0.61330652 1.4332761 -0.44705868 0 11 0
0.62557107 1.4619378 -0.41620299 0 12 0
0.64191592 1.5001351 -0.38673663 0 13 0
0.65871286 1.539389 -0.35591418 0 14 0
0.6772182 1.5826354 -0.32423511 0 15 0
0.69062817 1.613974 -0.28852344 0 16 0
0.70986974 1.6589408 -0.2535862 0 17 0
0.7230081 1.6896447 -0.21479392 0 18 0
0.75236678 1.758255 -0.17851 0 19 0
0.77017158 1.7998641 -0.13686322 0 20 0
0.78906268 1.844012 -0.093376614 0 21 0
0.81526244 1.9052399 -0.048182826 0 22 0
0.84327221 1.9706978 6.1194565e-05 0 23 0
0.86341876 2.0177796 0.051154289 0 24 0
0.90411556 2.1128867 0.10712332 0 25 0
0.94013608 2.1970651 0.16720384 0 26 0
0.99445021 2.3239954 0.2360934 0 27 0
1.0695362 2.499469 0.31789914 0 28 0
1.127243 2.6343277 0.40285099 0 29 0
1.5064236 3.5204594 0.6295625 0 30 0
1.6167148 3.7782063 0.77428555 0 31 0
0.3993077 0.97137624 -0.62284672 0 0 0
0.4257549 1.0357131 -0.62934303 0 1 0
0.44564202 1.0840915 -0.62329954 0 2 0
0.4723413 1.1490415 -0.62399763 0 3 0
0.49382371 1.2013006 -0.61495143 0 4 0
0.51411718 1.2506676 -0.60210806 0 5 0
0.52853441 1.2857397 -0.58061349 0 6 0
0.54145569 1.3171726 -0.55624753 0 7 0
0.55237025 1.3437239 -0.52883142 0 8 0
0.56572527 1.3762121 -0.50271946 0 9 0
0.57959467 1.4099514 -0.47581461 0 10 0
0.59116411 1.4380958 -0.44587708 0 11 0
0.61120045 1.4868374 -0.42075801 0 12 0
0.62216741 1.5135161 -0.38785073 0 13 0
0.63737935 1.5505215 -0.35634226 0 14 0
0.65374535 1.5903343 -0.32386217 0 15 0
0.67247677 1.6359012 -0.29069278 0 16 0
0.68969798 1.6777945 -0.25493306 0 17 0
0.70616794 1.7178601 -0.2170736 0 18 0
0.7275719 1.7699285 -0.17861956 0 19 0
0.74963242 1.8235941 -0.13783763 0 20 0
0.77173883 1.8773712 -0.094496809 0 21 0
0.7969842 1.9387842 -0.04873766 0 22 0
0.81712425 1.9877779 6.135548e-05 0 23 0
0.85307693 2.0752385 0.052296061 0 24 0
0.88448852 2.1516519 0.10843574 0 25 0
0.92922193 2.2604725 0.17099963 0 26 0
0.98745769 2.4021399 0.24257132 0 27 0
1.0704653 2.6040685 0.32922032 0 28 0
1.1551539 2.810086 0.42715636 0 29 0
1.4340513 3.4885461 0.62012118 0 30 0
1.543619 3.7550862 0.7649411 0 31 0
0.38781643 0.98320794 -0.62680972 0 0 0
0.40781018 1.0338969 -0.6246286 0 1 0
0.43493989 1.1026772 -0.63034153 0 2 0
0.45094258 1.143248 -0.61728299 0 3 0
0.48127696 1.2201529 -0.62101197 0 4 0
0.49574029 1.2568209 -0.60159278 0 5 0
0.50726432 1.2860371 -0.57740986 0 6 0
0.52695662 1.3359617 -0.56093949 0 7 0
0.54238826 1.3750848 -0.53806323 0 8 0
0.55279058 1.4014571 -0.50899875 0 9 0
0.55969113 1.4189517 -0.47609964 0 10 0
0.57292163 1.4524941 -0.4477528 0 11 0
0.59341061 1.5044386 -0.42329198 0 12 0
0.60797018 1.5413506 -0.39271331 0 13 0
0.62397337 1.5819227 -0.36146927 0 14 0
0.63544267 1.6110001 -0.32618499 0 15 0
0.6584565 1.6693456 -0.29493076 0 16 0
0.67171037 1.7029474 -0.25726768 0 17 0
0.69567811 1.7637113 -0.22158654 0 18 0
0.71361852 1.8091946 -0.18153284 0 19 0
0.72804981 1.8457813 -0.13871281 0 20 0
0.75650132 1.9179128 -0.095982596 0 21 0
0.77901429 1.9749886 -0.049362417 0 22 0
0.79747903 2.0218012 6.2046965e-05 0 23 0
0.830176 2.1046958 0.052733544 0 24 0
0.86959994 2.2046452 0.11046782 0 25 0
0.91836518 2.3282766 0.17511654 0 26 0
0.99093568 2.5122604 0.25223333 0 27 0
1.0827162 2.7449462 0.34503624 0 28 0
1.1403135 2.890969 0.43692547 0 29 0
1.3597927 3.4474018 0.60928524 0 30 0
1.4716368 3.7309532 0.75565672 0 31 0
0.37179962 0.98361677 -0.62361377 0 0 0
0.39575475 1.0469913 -0.62905288 0 1 0
0.41449103 1.0965593 -0.62338889 0 2 0
0.43926221 1.1620928 -0.6239993 0 3 0
0.46932727 1.2416316 -0.62846041 0 4 0
0.48225972 1.2758452 -0.60733259 0 5 0
0.49990973 1.3225392 -0.59052557 0 6 0
0.50785279 1.3435531 -0.56101733 0 7 0
0.52311432 1.3839283 -0.53853863 0 8 0
0.53306782 1.4102609 -0.50937289 0 9 0
0.54323334 1.4371543 -0.47954905 0 10 0
0.5579434 1.4760705 -0.45251241 0 11 0
0.57513875 1.5215617 -0.42574993 0 12 0
0.59382707 1.5710027 -0.39806187 0 13 0
0.60454184 1.5993495 -0.36343685 0 14 0
0.62035257 1.6411775 -0.33046344 0 15 0
0.63184959 1.6715935 -0.29370001 0 16 0
0.65214324 1.7252815 -0.25920501 0 17 0
0.66736388 1.7655487 -0.22059466 0 18 0
0.68946415 1.8240161 -0.18201117 0 19 0
0.71060485 1.8799449 -0.14050147 0 20 0
0.72907913 1.9288198 -0.09599635 0 21 0
0.75594759 1.9999018 -0.049709562 0 22 0
0.78692013 2.0818412 6.3537365e-05 0 23 0
0.81686473 2.1610615 0.053847328 0 24 0
0.8584922 2.2711895 0.11317484 0 25 0
0.90262747 2.3879516 0.17861484 0 26 0
0.98419088 2.6037321 0.25997618 0 27 0
1.058687 2.8008158 0.35011834 0 28 0
1.1328119 2.9969177 0.45044124 0 29 0
1.2963514 3.4295704 0.60279262 0 30 0
1.3964986 3.6945155 0.74415201 0 31 0
0.36186337 1.0003912 -0.63090038 0 0 0
0.37363848 1.0329442 -0.61733663 0 1 0
0.40320227 1.1146749 -0.63034207 0 2 0
0.42430741 1.1730213 -0.62654215 0 3 0
0.447528 1.2372159 -0.62291926 0 4 0
0.46109048 1.2747101 -0.60358882 0 5 0
0.47477314 1.3125366 -0.58296525 0 6 0
0.49645436 1.3724755 -0.57006866 0 7 0
0.50734764 1.4025905 -0.54291934 0 8 0
0.51689553 1.4289862 -0.5134114 0 9 0
0.52391452 1.4483906 -0.4807469 0 10 0
0.54573065 1.5087024 -0.46007442 0 11 0
0.56143427 1.552116 -0.43200651 0 12 0
0.57551956 1.5910555 -0.40101451 0 13 0
0.58680302 1.6222494 -0.36669445 0 14 0
0.60631806 1.6761997 -0.33573356 0 15 0
0.61831737 1.7093725 -0.29875219 0 16 0
0.64018565 1.7698286 -0.26449397 0 17 0
0.65502852 1.8108624 -0.22506185 0 18 0
0.67126763 1.8557564 -0.18420078 0 19 0
0.69272697 1.915082 -0.14237188 0 20 0
0.71821821 1.9855539 -0.098298274 0 21 0
0.73380226 2.0286369 -0.050157595 0 22 0
0.76465929 2.1139429 6.4176478e-05 0 23 0
0.8034848 2.221278 0.055055548 0 24 0
0.83987564 2.3218825 0.11509009 0 25 0
0.89184242 2.4655476 0.18344527 0 26 0
0.96659559 2.6722069 0.26540461 0 27 0
1.026101 2.8367126 0.35273355 0 28 0
1.0989978 3.03824 0.45424122 0 29 0
1.2444228 3.4402757 0.60148185 0 30 0
1.3398311 3.7040372 0.74213111 0 31 0
0.34312356 0.99277997 -0.62293917 0 0 0
0.36299631 1.0502789 -0.62452751 0 1 0
0.38329643 1.1090145 -0.62397474 0 2 0
0.41075972 1.1884757 -0.63159174 0 3 0
0.43227223 1.2507192 -0.62653857 0 4 0
0.44262406 1.2806708 -0.60334951 0 5 0
0.46328241 1.3404428 -0.59235388 0 6 0
0.47202277 1.3657318 -0.56440353 0 7 0
0.49014437 1.4181641 -0.54617602 0 8 0
0.49753061 1.4395351 -0.51459014 0 9 0
0.51021403 1.4762328 -0.48751429 0 10 0
0.5261156 1.5222418 -0.46185949 0 11 0
0.54259151 1.5699126 -0.43475375 0 12 0
0.55391133 1.6026648 -0.40190107 0 13 0
0.57649899 1.6680191 -0.37513661 0 14 0
0.58720291 1.6989894 -0.33858007 0 15 0
0.60080677 1.7383503 -0.30228278 0 16 0
0.62317431 1.8030676 -0.26810092 0 17 0
0.63691074 1.8428121 -0.22787632 0 18 0
0.6569528 1.9008009 -0.18771927 0 19 0
0.67262036 1.9461327 -0.14394979 0 20 0
0.69552177 2.0123949 -0.099124074 0 21 0
0.71319085 2.0635178 -0.050762422 0 22 0
0.7492668 2.1678984 6.5482214e-05 0 23 0
0.78066397 2.2587419 0.05570145 0 24 0
0.82617831 2.3904312 0.11788964 0 25 0
0.879089 2.5435209 0.18829127 0 26 0
0.9502666 2.7494633 0.27169901 0 27 0
0.9964698 2.8831458 0.35669726 0 28 0
1.055308 3.053386 0.45420077 0 29 0
1.1877187 3.4364977 0.59778786 0 30 0
1.2754132 3.6902294 0.73563164 0 31 0
0.32706743 0.99209177 -0.61950642 0 0 0
0.35260126 1.0695434 -0.63291681 0 1 0
0.36806759 1.1164572 -0.62513411 0 2 0
0.39039525 1.1841837 -0.62627715 0 3 0
0.41109842 1.2469825 -0.62165534 0 4 0
0.43008468 1.3045733 -0.61164767 0 5 0
0.44023091 1.3353499 -0.58725858 0 6 0
0.45686665 1.385811 -0.56994063 0 7 0
0.4701072 1.4259734 -0.54653615 0 8 0
0.48245835 1.4634382 -0.5206129 0 9 0
0.49513984 1.5019048 -0.49360123 0 10 0
0.50813025 1.5413085 -0.46539009 0 11 0
0.52532452 1.5934639 -0.43914849 0 12 0
0.53745812 1.6302686 -0.40685248 0 13 0
0.55255556 1.6760637 -0.37512869 0 14 0
0.57078254 1.7313515 -0.343366 0 15 0
0.5811168 1.7626982 -0.30503902 0 16 0
0.59985584 1.8195393 -0.26924586 0 17 0
0.61873984 1.87682 -0.23096283 0 18 0
0.63537437 1.9272773 -0.18941648 0 19 0
0.65006542 1.9718397 -0.14514814 0 20 0
0.67284405 2.0409341 -0.10004519 0 21 0
0.69857436 2.1189816 -0.051875539 0 22 0
0.72921652 2.2119281 6.6490065e-05 0 23 0
0.76510572 2.3207908 0.056955699 0 24 0
0.80891913 2.4536896 0.12042602 0 25 0
0.86386305 2.6203508 0.19304369 0 26 0
0.92405975 2.8029451 0.27564874 0 27 0
0.96822333 2.9369063 0.36159679 0 28 0
1.0204748 3.0954003 0.45823088 0 29 0
1.130698 3.4297397 0.59373617 0 30 0
1.2127643 3.6786706 0.72979224 0 31 0
0.31760803 1.0118773 -0.62895811 0 0 0
0.33382362 1.063539 -0.62647194 0 1 0
0.34856054 1.1104898 -0.61893588 0 2 0
0.3696458 1.1776661 -0.61996847 0 3 0
0.39612916 1.2620401 -0.62627125 0 4 0
0.41248521 1.3141494 -0.6133064 0 5 0
0.42461675 1.3527997 -0.59219909 0 6 0
0.43818396 1.3960239 -0.57150286 0 7 0
0.45025644 1.4344859 -0.54727262 0 8 0
0.46159253 1.4706019 -0.52075762 0 9 0
0.47856012 1.5246595 -0.4987773 0 10 0
0.4945178 1.5754997 -0.47352815 0 11 0
0.50591844 1.6118212 -0.44216666 0 12 0
0.52098578 1.6598247 -0.41232529 0 13 0
0.53002262 1.6886156 -0.37620148 0 14 0
0.54914737 1.7495456 -0.34538007 0 15 0
0.56659502 1.8051326 -0.31094709 0 16 0
0.57992673 1.8476064 -0.27214292 0 17 0
0.59713423 1.9024285 -0.23303854 0 18 0
0.61034381 1.9445133 -0.19023238 0 19 0
0.63574868 2.0254514 -0.1484095 0 20 0
0.65193856 2.0770314 -0.10134685 0 21 0
0.67611122 2.1540437 -0.052491613 0 22 0
0.71016538 2.262538 6.7698893e-05 0 23 0
0.745713 2.3757901 0.058037575 0 24 0
0.78762805 2.5093286 0.1225909 0 25 0
0.83598578 2.663393 0.19531311 0 26 0
0.89652902 2.8562796 0.27960318 0 27 0
0.93454665 2.9774013 0.36489826 0 28 0
0.98475671 3.137367 0.46230948 0 29 0
1.0799795 3.4407406 0.59290379 0 30 0
1.1481342 3.6578765 0.72233284 0 31 0
0.30008769 1.0062402 -0.62272066 0 0 0
0.32023841 1.0738087 -0.62975669 0 1 0
0.33514187 1.1237823 -0.62360692 0 2 0
0.35482645 1.1897877 -0.62361223 0 3 0
0.3771978 1.2648023 -0.62489873 0 4 0
0.39390057 1.3208092 -0.61372042 0 5 0
0.40490386 1.357705 -0.59174877 0 6 0
0.4174245 1.3996886 -0.57049876 0 7 0
0.43205807 1.4487572 -0.55030149 0 8 0
0.44846386 1.5037683 -0.53017485 0 9 0
0.45886856 1.5386569 -0.50115645 0 10 0
0.46724668 1.56675 -0.46884027 0 11 0
0.48938942 1.6409981 -0.44820315 0 12 0
0.49778119 1.669137 -0.41282639 0 13 0
0.51644719 1.7317269 -0.38411993 0 14 0
0.52895319 1.7736614 -0.34861046 0 15 0
0.54624403 1.8316404 -0.31413427 0 16 0
0.55870783 1.8734334 -0.27474102 0 17 0
0.58021903 1.9455638 -0.2372808 0 18 0
0.59489977 1.9947904 -0.19429807 0 19 0
0.61500454 2.0622048 -0.15044209 0 20 0
0.63421202 2.1266105 -0.1033125 0 21 0
0.66019475 2.2137346 -0.053710435 0 22 0
0.68652213 2.3020144 6.8579044e-05 0 23 0
0.72515684 2.4315624 0.059140407 0 24 0
0.77578497 2.6013265 0.12652992 0 25 0
0.81104493 2.7195585 0.19856022 0 26 0
0.85950398 2.8820491 0.28089273 0 27 0
0.89824647 3.0119588 0.36752015 0 28 0
0.94617409 3.1726675 0.46546787 0 29 0
1.0295593 3.4522707 0.59229064 0 30 0
1.0903827 3.6562209 0.71885026 0 31 0
0.28759113 1.0172783 -0.62693995 0 0 0
0.30507159 1.0791109 -0.6302408 0 1 0
0.31933054 1.1295482 -0.62420624 0 2 0
0.33888561 1.198719 -0.62568694 0 3 0
0.3623178 1.2816043 -0.63057321 0 4 0
0.3745493 1.3248701 -0.61305344 0 5 0
0.38474834 1.3609465 -0.59070081 0 6 0
0.40036556 1.4161884 -0.57482922 0 7 0
0.4123024 1.4584117 -0.55167055 0 8 0
0.42898756 1.5174311 -0.53277242 0 9 0
0.44075084 1.5590405 -0.50568897 0 10 0
0.45611885 1.6134009 -0.48079738 0 11 0
0.47164804 1.6683314 -0.45377827 0 12 0
0.48179469 1.7042224 -0.41975543 0 13 0
0.49491611 1.7506361 -0.38670331 0 14 0
0.50758845 1.7954613 -0.35143119 0 15 0
0.5220148 1.8464906 -0.31536737 0 16 0
0.54428017 1.9252486 -0.28116849 0 17 0
0.55725962 1.9711601 -0.2394052 0 18 0
0.57687134 2.0405314 -0.19792882 0 19 0
0.58791858 2.079608 -0.15108229 0 20 0
0.61420429 2.1725867 -0.1051082 0 21 0
0.6410327 2.2674854 -0.054786325 0 22 0
0.67042941 2.3714683 7.0355054e-05 0 23 0
0.70575446 2.4964216 0.060466021 0 24 0
0.74733824 2.6435132 0.12804848 0 25 0
0.78475147 2.7758527 0.20182958 0 26 0
0.82129568 2.9051185 0.28196648 0 27 0
0.8585676 3.036958 0.36903325 0 28 0
0.90261185 3.1927531 0.46647143 0 29 0
0.971461 3.4362888 0.58710295 0 30 0
1.0305734 3.6453834 0.71374613 0 31 0
0.26765749 1.001295 -0.61466557 0 0 0
0.28811079 1.0778099 -0.62700832 0 1 0
0.30500692 1.1410176 -0.62806755 0 2 0
0.3223252 1.2058046 -0.62691301 0 3 0
0.34065282 1.2743673 -0.62454951 0 4 0
0.35383767 1.3236914 -0.610102 0 5 0
0.36477464 1.364606 -0.5899626 0 6 0
0.37816587 1.4147022 -0.57197034 0 7 0
0.39412692 1.4744116 -0.55553198 0 8 0
0.41481355 1.5517994 -0.54269898 0 9 0
0.42256087 1.5807818 -0.51072681 0 10 0
0.43764445 1.6372088 -0.48597565 0 11 0
0.44989893 1.6830523 -0.45598409 0 12 0
0.46411416 1.7362309 -0.42595935 0 13 0
0.47890258 1.7915537 -0.39418718 0 14 0
0.48975742 1.8321612 -0.3572059 0 15 0
0.50427198 1.8864596 -0.32092816 0 16 0
0.51698184 1.9340067 -0.28133804 0 17 0
0.53831148 2.0137999 -0.24362323 0 18 0
0.55519772 2.0769706 -0.200672 0 19 0
0.57222986 2.140687 -0.15490876 0 20 0
0.5903281 2.2083919 -0.10642074 0 21 0
0.61597657 2.3043416 -0.055458125 0 22 0
0.64961123 2.4301674 7.1813287e-05 0 23 0
0.68446815 2.5605657 0.061776035 0 24 0
0.71939433 2.6912231 0.12984741 0 25 0
0.75290763 2.8165948 0.20398745 0 26 0
0.78012413 2.9184105 0.28214392 0 27 0
0.82088232 3.0708849 0.37169003 0 28 0
0.85425186 3.1957192 0.46507072 0 29 0
0.91908628 3.4382617 0.58513248 0 30 0
0.97376835 3.6428251 0.7104435 0 31 0
0.25871265 1.0265009 -0.62780124 0 0 0
0.27060717 1.0736951 -0.62229753 0 1 0
0.28448164 1.1287452 -0.61900747 0 2 0
0.30524468 1.2111273 -0.62734449 0 3 0
0.32407084 1.2858244 -0.62782681 0 4 0
0.33307287 1.3215419 -0.60685176 0 5 0
0.34774917 1.3797734 -0.59430712 0 6 0
0.35909748 1.4248004 -0.57391626 0 7 0
0.37839162 1.5013542 -0.5635851 0 8 0
0.39223602 1.556285 -0.54224873 0 9 0
0.40682298 1.6141621 -0.51957691 0 10 0
0.41689092 1.6541089 -0.48917079 0 11 0
0.42970061 1.7049342 -0.460199 0 12 0
0.44646284 1.7714422 -0.43298578 0 13 0
0.46120122 1.8299201 -0.40113518 0 14 0
0.47091568 1.8684645 -0.36293238 0 15 0
0.48614907 1.9289063 -0.32693201 0 16 0
0.50325614 1.9967825 -0.28939247 0 17 0
0.51360434 2.0378413 -0.24561715 0 18 0
0.5296151 2.1013677 -0.20227604 0 19 0
0.55017233 2.1829331 -0.15737987 0 20 0
0.57323337 2.2744329 -0.10919664 0 21 0
0.59167939 2.3476217 -0.05629015 0 22 0
0.62151158 2.4659877 7.2601484e-05 0 23 0
0.66324723 2.6315835 0.063253887 0 24 0
0.68735075 2.7272196 0.13109607 0 25 0
0.72035754 2.8581812 0.20623142 0 26 0
0.74182433 2.9433556 0.28349999 0 27 0
0.7765047 3.0809579 0.37152591 0 28 0
0.8135094 3.2277825 0.46799439 0 29 0
0.86804849 3.4441786 0.58396506 0 30 0
0.91847676 3.6442642 0.70808774 0 31 0
0.24448459 1.032166 -0.62906122 0 0 0
0.25401378 1.0723963 -0.61937404 0 1 0
0.27264407 1.1510499 -0.62903482 0 2 0
0.28753752 1.2139269 -0.62659866 0 3 0
0.30811581 1.3008045 -0.63292295 0 4 0
0.31660286 1.3366351 -0.6116389 0 5 0
0.32843667 1.3865951 -0.59515959 0 6 0
0.34400979 1.4523418 -0.58296692 0 7 0
0.36162472 1.5267086 -0.57110119 0 8 0
0.37568137 1.586053 -0.55069065 0 9 0
0.38580504 1.6287931 -0.52245539 0 10 0
0.3976993 1.6790084 -0.49480021 0 11 0
0.40972567 1.7297814 -0.46527514 0 12 0
0.4250325 1.7944038 -0.43706641 0 13 0
0.43581927 1.8399434 -0.40192378 0 14 0
0.44695258 1.886946 -0.36524221 0 15 0
0.46401221 1.9589685 -0.33086768 0 16 0
0.47765002 2.0165446 -0.29123589 0 17 0
0.49264178 2.0798368 -0.24980332 0 18 0
0.50867105 2.1475093 -0.20599565 0 19 0
0.52549642 2.2185426 -0.15938856 0 20 0
0.54768902 2.3122356 -0.11062386 0 21 0
0.57286459 2.4185216 -0.057787634 0 22 0
0.60344476 2.5476253 7.4743031e-05 0 23 0
0.63271487 2.6711979 0.063981846 0 24 0
0.66006941 2.7866833 0.13348664 0 25 0
0.68508601 2.8922985 0.20796429 0 26 0
0.71003062 2.9976099 0.28771731 0 27 0
0.73697108 3.1113474 0.37388018 0 28 0
0.77013415 3.2513552 0.46976578 0 29 0
0.82213038 3.4708729 0.58643591 0 30 0
0.86053115 3.6329935 0.7034325 0 31 0
0.22707747 1.0237932 -0.62191379 0 0 0
0.2390355 1.0777067 -0.6204015 0 1 0
0.25517818 1.1504869 -0.62666702 0 2 0
0.26995313 1.2171007 -0.62617832 0 3 0
0.28491148 1.2845415 -0.62296188 0 4 0
0.29670158 1.3376979 -0.61011946 0 5 0
0.30826399 1.3898277 -0.59459233 0 6 0
0.32622534 1.4708076 -0.58844447 0 7 0
0.34341544 1.5483103 -0.57728392 0 8 0
0.35865545 1.6170208 -0.55960321 0 9 0
0.36969373 1.6667875 -0.53289068 0 10 0
0.37777343 1.7032155 -0.50028926 0 11 0
0.39424717 1.7774884 -0.47654063 0 12 0
0.40137228 1.8096124 -0.43932647 0 13 0
0.41222748 1.8585538 -0.40465873 0 14 0
0.42826617 1.9308652 -0.37251863 0 15 0
0.44404227 2.0019927 -0.33702642 0 16 0
0.45830911 2.0663157 -0.2974461 0 17 0
0.47120193 2.1244438 -0.25432479 0 18 0
0.48682058 2.1948614 -0.20984791 0 19 0
0.50174928 2.2621684 -0.16199024 0 20 0
0.52216321 2.3542058 -0.11226276 0 21 0
0.54599065 2.4616334 -0.058625001 0 22 0
0.57215726 2.5796072 7.5433345e-05 0 23 0
0.60037988 2.7068508 0.064623363 0 24 0
0.6266554 2.8253157 0.13489372 0 25 0
0.64335597 2.9006112 0.20787857 0 26 0
0.66783887 3.0109937 0.28805494 0 27 0
0.69213933 3.1205542 0.37375778 0 28 0
0.71858603 3.2397907 0.46656105 0 29 0
0.76977324 3.4705713 0.58446348 0 30 0
0.80375606 3.623785 0.69935036 0 31 0
0.21267661 1.0282675 -0.62271875 0 0 0
0.2277685 1.101235 -0.6320045 0 1 0
0.239787 1.1593431 -0.62955695 0 2 0
0.25377357 1.2269666 -0.62932086 0 3 0
0.26920399 1.301571 -0.62928754 0 4 0
0.27795094 1.3438615 -0.61105353 0 5 0
0.29234865 1.4134728 -0.6028561 0 6 0
0.30996865 1.4986635 -0.59775293 0 7 0
0.32397345 1.566375 -0.58223075 0 8 0
0.33493495 1.6193727 -0.5587008 0 9 0
0.34737411 1.6795148 -0.53531522 0 10 0
0.35829887 1.7323347 -0.5072841 0 11 0
0.37384725 1.8075093 -0.48310509 0 12 0
0.37999377 1.8372271 -0.4446646 0 13 0
0.38853201 1.8785086 -0.40775084 0 14 0
0.40966678 1.9806927 -0.38096148 0 15 0
0.42079306 2.034487 -0.34144777 0 16 0
0.43416905 2.0991585 -0.3012484 0 17 0
0.44524196 2.1526947 -0.2569176 0 18 0
0.46056572 2.2267833 -0.21224791 0 19 0
0.48014742 2.3214586 -0.16572681 0 20 0
0.49708581 2.4033539 -0.11425544 0 21 0
0.51994222 2.5138621 -0.059685498 0 22 0
0.54781222 2.6486104 7.7213946e-05 0 23 0
0.56878352 2.7500043 0.065452546 0 24 0
0.59006405 2.8528931 0.13579324 0 25 0
0.60937029 2.9462368 0.21050178 0 26 0
0.62762064 3.0344751 0.28941226 0 27 0
0.64718843 3.1290829 0.37363151 0 28 0
0.68035674 3.2894483 0.47226143 0 29 0
0.71799791 3.4714391 0.58281916 0 30 0
0.75433218 3.6471112 0.7016964 0 31 0
0.19744714 1.0286473 -0.62117362 0 0 0
0.2089193 1.0884142 -0.62286657 0 1 0
0.22165324 1.1547546 -0.62527841 0 2 0
0.23491386 1.2238389 -0.62592793 0 3 0
0.24932674 1.2989264 -0.62621927 0 4 0
0.2602112 1.3556315 -0.61464876 0 5 0
0.27585962 1.4371555 -0.61121029 0 6 0
0.29132742 1.5177387 -0.60363615 0 7 0
0.30516899 1.5898496 -0.58927238 0 8 0
0.31665343 1.6496805 -0.5675354 0 9 0
0.33037454 1.7211639 -0.54702687 0 10 0
0.33783954 1.7600545 -0.5139327 0 11 0
0.34950343 1.8208202 -0.48527601 0 12 0
0.36013857 1.8762265 -0.45280963 0 13 0
0.36913034 1.9230714 -0.4162342 0 14 0
0.3849282 2.005374 -0.38460949 0 15 0
0.3981716 2.0743687 -0.34714904 0 16 0
0.41072348 2.1397605 -0.30620015 0 17 0
0.42461541 2.2121339 -0.26325914 0 18 0
0.43661359 2.274641 -0.21619169 0 19 0
0.45106018 2.3499041 -0.16727947 0 20 0
0.47225779 2.4603381 -0.11663117 0 21 0
0.49325448 2.5697253 -0.060837973 0 22 0
0.5173772 2.6953981 7.8354009e-05 0 23 0
0.53563333 2.7905076 0.066227295 0 24 0
0.55494678 2.8911259 0.13722092 0 25 0
0.57114947 2.9755375 0.21198943 0 26 0
0.59118181 3.0799007 0.29290769 0 27 0
0.60710245 3.162843 0.37658647 0 28 0
0.63463277 3.3062687 0.4733237 0 29 0
0.66574031 3.4683306 0.58063799 0 30 0
0.69797003 3.6362388 0.69761103 0 31 0
0.18341084 1.0353527 -0.62357366 0 0 0
0.1938338 1.0941902 -0.6245203 0 1 0
0.20763391 1.1720917 -0.63299197 0 2 0
0.21743113 1.227397 -0.62609184 0 3 0
0.23036376 1.3004016 -0.6252768 0 4 0
0.23980217 1.3536813 -0.61214566 0 5 0
0.25727814 1.452333 -0.61603588 0 6 0
0.27179843 1.5343 -0.60861331 0 7 0
0.28296858 1.5973554 -0.59049267 0 8 0
0.2963559 1.6729267 -0.5740146 0 9 0
0.30627149 1.7289002 -0.54803622 0 10 0
0.31682459 1.7884722 -0.5208531 0 11 0
0.32571125 1.8386375 -0.48873201 0 12 0
0.33984011 1.9183948 -0.46176529 0 13 0
0.34930319 1.9718137 -0.42565835 0 14 0
0.36037785 2.0343301 -0.38913381 0 15 0
0.37442395 2.1136203 -0.35278481 0 16 0
0.38567433 2.1771286 -0.31072572 0 17 0
0.39907539 2.2527773 -0.26738882 0 18 0
0.41071993 2.3185108 -0.21978 0 19 0
0.42395374 2.3932154 -0.16991323 0 20 0
0.44084275 2.4885538 -0.11765755 0 21 0
0.46068388 2.6005569 -0.061405506 0 22 0
0.48277846 2.7252805 7.9013706e-05 0 23 0
0.50141299 2.8304725 0.066998586 0 24 0
0.51782829 2.9231365 0.13837427 0 25 0
0.53005421 2.9921517 0.21261081 0 26 0
0.549766 3.1034245 0.29436633 0 27 0
0.56543982 3.1919034 0.37904409 0 28 0
0.59037721 3.3326745 0.47584546 0 29 0
0.61545247 3.4742241 0.58009046 0 30 0
0.64283091 3.6287754 0.69434279 0 31 0
0.16921161 1.0417967 -0.62593198 0 0 0
0.17948863 1.1050699 -0.62919921 0 1 0
0.19038506 1.1721567 -0.63149071 0 2 0
0.20078312 1.2361751 -0.62903911 0 3 0
0.2114006 1.3015445 -0.62430751 0 4 0
0.22546333 1.3881255 -0.62619805 0 5 0
0.24002938 1.4778053 -0.62531912 0 6 0
0.25382707 1.5627545 -0.61839586 0 7 0
0.26362085 1.6230526 -0.5985359 0 8 0
0.27600518 1.6993001 -0.58164877 0 9 0
0.28371075 1.7467414 -0.55234778 0 10 0
0.29237926 1.8001114 -0.52297044 0 11 0
0.30257696 1.8628963 -0.4939785 0 12 0
0.31402758 1.933395 -0.46424645 0 13 0
0.32551622 2.004128 -0.43158409 0 14 0
0.33727038 2.0764956 -0.39623538 0 15 0
0.34721777 2.1377394 -0.3559446 0 16 0
0.36045572 2.2192423 -0.31596759 0 17 0
0.37140131 2.2866318 -0.27074841 0 18 0
0.38230598 2.3537693 -0.22258076 0 19 0
0.39851943 2.4535918 -0.17377704 0 20 0
0.41637397 2.563518 -0.12090766 0 21 0
0.43574578 2.6827857 -0.063193388 0 22 0
0.44864666 2.7622135 7.9890138e-05 0 23 0
0.46234703 2.8465636 0.067215942 0 24 0
0.47645742 2.9334381 0.13852489 0 25 0
0.49148175 3.0259392 0.21448977 0 26 0
0.50378013 3.1016574 0.29348469 0 27 0
0.52293748 3.2196047 0.38140574 0 28 0
0.54264402 3.3409336 0.47586697 0 29 0
0.56697458 3.490731 0.58143204 0 30 0
0.59065509 3.6365268 0.69413722 0 31 0
0.15144069 1.0248691 -0.61439621 0 0 0
0.16285144 1.102091 -0.62611175 0 1 0
0.17239213 1.1666572 -0.62713432 0 2 0
0.1817361 1.2298921 -0.62445432 0 3 0
