# .PCD v0.7 - Point Cloud Data file format
VERSION 0.7
FIELDS x y z intensity ring time
SIZE 4 4 4 4 2 4
TYPE F F F F U F
COUNT 1 1 1 1 1 1
WIDTH 1219
HEIGHT 1
VIEWPOINT 0 0 0 1 0 0 0
POINTS 1219
DATA ascii
2.6539321 0.13305657 -0.1857679 0 20 0
2.7076781 0.13575116 -0.12621334 0 21 0
2.7737832 0.13906537 -0.064572699 0 22 0
2.8659375 0.14368559 8.1920654e-05 0 23 0
2.9503496 0.14791764 0.068851866 0 24 0
3.0542314 0.15312582 0.14254226 0 25 0
3.1653605 0.15869735 0.22174834 0 26 0
3.2829211 0.16459133 0.30700317 0 27 0
3.4824464 0.17459466 0.40771803 0 28 0
1.0521575 0.067859299 -0.62527627 0 0 0
1.1006854 0.070989117 -0.61988145 0 1 0
1.1694616 0.075424865 -0.62318116 0 2 0
1.2407793 0.080024526 -0.62450981 0 3 0
1.3108251 0.084542155 -0.6219154 0 4 0
1.4042879 0.090570077 -0.62659395 0 5 0
1.5006932 0.096787773 -0.62809223 0 6 0
1.5943978 0.10283129 -0.62405026 0 7 0
1.7251611 0.11126491 -0.62926608 0 8 0
1.8484851 0.11921874 -0.62582624 0 9 0
1.9537328 0.12600674 -0.61107743 0 10 0
2.0550299 0.13253993 -0.59053129 0 11 0
2.1084347 0.13598429 -0.55300182 0 12 0
2.1706963 0.13999988 -0.51555389 0 13 0
2.2370651 0.14428036 -0.47650298 0 14 0
2.2987058 0.1482559 -0.43386304 0 15 0
2.3716145 0.15295817 -0.39058787 0 16 0
2.4409745 0.15743156 -0.34375423 0 17 0
2.5076363 0.16173095 -0.29368466 0 18 0
2.5512786 0.16454567 -0.23863198 0 19 0
2.6006598 0.16773054 -0.18218839 0 20 0
2.6708763 0.17225918 -0.12460006 0 21 0
2.7273953 0.17590438 -0.063544907 0 22 0
2.7997663 0.18057197 8.0094876e-05 0 23 0
2.8776643 0.18559605 0.067210726 0 24 0
2.9712546 0.19163218 0.1387835 0 25 0
3.0745068 0.19829147 0.21556035 0 26 0
3.2057953 0.20675898 0.30003676 0 27 0
3.341357 0.21550208 0.39152059 0 28 0
3.5598934 0.22959667 0.50153559 0 29 0
1.0560642 0.083304092 -0.62824219 0 0 0
1.1027502 0.086986765 -0.62168187 0 1 0
1.1700072 0.092292108 -0.62411195 0 2 0
1.2422001 0.09798681 -0.62586677 0 3 0
1.3286349 0.10480493 -0.63101232 0 4 0
1.3935918 0.10992883 -0.62245965 0 5 0
1.4882867 0.11739852 -0.62353915 0 6 0
1.5977576 0.12603377 -0.6260072 0 7 0
1.7128141 0.1351096 -0.62540376 0 8 0
1.8382124 0.14500123 -0.62298709 0 9 0
1.9625093 0.15480599 -0.6144526 0 10 0
2.0342202 0.16046266 -0.58515155 0 11 0
2.0899577 0.16485932 -0.54871833 0 12 0
2.1474109 0.16939133 -0.51054704 0 13 0
2.2143242 0.17466956 -0.47214329 0 14 0
2.260323 0.17829803 -0.42705652 0 15 0
2.340097 0.18459073 -0.38579279 0 16 0
2.394438 0.18887724 -0.33754683 0 17 0
2.4505713 0.19330512 -0.28729603 0 18 0
2.5033557 0.19746885 -0.23438992 0 19 0
2.5432551 0.20061617 -0.17834981 0 20 0
2.619755 0.20665061 -0.12234063 0 21 0
2.6851704 0.21181069 -0.062625341 0 22 0
2.760365 0.21774216 7.9048761e-05 0 23 0
2.8339801 0.22354904 0.066258378 0 24 0
2.9160922 0.23002619 0.13634676 0 25 0
3.010792 0.23749626 0.21130987 0 26 0
3.1135561 0.24560246 0.29170305 0 27 0
3.2473092 0.25615314 0.3808912 0 28 0
3.4016821 0.26833031 0.47973791 0 29 0
1.0556997 0.098497264 -0.62879962 0 0 0
1.1060902 0.10319872 -0.62433356 0 1 0
1.1608815 0.10831077 -0.62000746 0 2 0
1.2427441 0.1159486 -0.62691277 0 3 0
1.3096479 0.12219075 -0.62276161 0 4 0
1.3944845 0.13010605 -0.62362629 0 5 0
1.494271 0.13941617 -0.62681824 0 6 0
1.5992558 0.1492113 -0.62736678 0 7 0
1.7204148 0.16051549 -0.62895352 0 8 0
1.8370507 0.17139767 -0.62336099 0 9 0
1.9586771 0.18274547 -0.61400878 0 10 0
2.0304136 0.18943852 -0.58477658 0 11 0
2.0711331 0.19323766 -0.54444635 0 12 0
2.1402717 0.19968832 -0.50947702 0 13 0
2.1716735 0.20261814 -0.4636201 0 14 0
2.2446654 0.20942831 -0.42462111 0 15 0
2.3036733 0.21493378 -0.38025618 0 16 0
2.367759 0.22091301 -0.33419737 0 17 0
2.3963578 0.22358128 -0.2812866 0 18 0
2.4531441 0.22887947 -0.22997177 0 19 0
2.5151389 0.23466362 -0.17659557 0 20 0
2.5788627 0.24060906 -0.12057947 0 21 0
2.6402812 0.24633944 -0.061654326 0 22 0
2.7014041 0.25204223 7.7455668e-05 0 23 0
2.7772181 0.25911573 0.065011345 0 24 0
2.8497951 0.2658872 0.1334112 0 25 0
2.9546888 0.27567381 0.20762797 0 26 0
3.0353301 0.28319767 0.2847248 0 27 0
3.1706913 0.29582694 0.37236288 0 28 0
3.2854123 0.30653048 0.46391168 0 29 0
3.4784303 0.32453912 0.57437241 0 30 0
1.0519615 0.11335709 -0.62747526 0 0 0
1.1053708 0.11911236 -0.62482589 0 1 0
1.1656892 0.12561214 -0.62347162 0 2 0
1.2403673 0.13365927 -0.62661469 0 3 0
1.3108889 0.14125854 -0.62424922 0 4 0
1.4119668 0.15215048 -0.63235372 0 5 0
1.4834698 0.15985548 -0.62318331 0 6 0
1.6027365 0.17270739 -0.62963742 0 7 0
1.7080448 0.18405518 -0.62533027 0 8 0
1.8485454 0.19919524 -0.62816459 0 9 0
1.9235116 0.20727342 -0.60385329 0 10 0
2.0026071 0.21579659 -0.57759851 0 11 0
2.0674415 0.222783 -0.54425848 0 12 0
2.0943687 0.22568461 -0.49926797 0 13 0
2.164526 0.23324461 -0.46275949 0 14 0
2.2095792 0.23809946 -0.41858572 0 15 0
2.2646186 0.24403039 -0.37434781 0 16 0
2.3262868 0.25067562 -0.32881653 0 17 0
2.3696043 0.25534344 -0.27854675 0 18 0
2.4355507 0.26244965 -0.2286512 0 19 0
2.4735885 0.26654851 -0.17392825 0 20 0
2.5309651 0.2727313 -0.11851033 0 21 0
2.5933089 0.27944934 -0.060644649 0 22 0
2.6525259 0.28583041 7.616372e-05 0 23 0
2.7317886 0.2943716 0.064039968 0 24 0
2.7947209 0.30115303 0.13102131 0 25 0
2.8710644 0.30937967 0.20204212 0 26 0
2.9738374 0.32045424 0.27935821 0 27 0
3.0844047 0.33236873 0.36275101 0 28 0
3.2008572 0.34491739 0.45262295 0 29 0
3.3586118 0.36191672 0.55538607 0 30 0
3.5960965 0.38750753 0.6814633 0 31 0
1.0490392 0.1282554 -0.62676299 0 0 0
1.1023622 0.13477464 -0.62415171 0 1 0
1.1708525 0.14314827 -0.62726486 0 2 0
1.2426295 0.1519237 -0.62879163 0 3 0
1.3112954 0.16031878 -0.62547147 0 4 0
1.4007084 0.17125042 -0.62834501 0 5 0
1.4934355 0.18258721 -0.62840319 0 6 0
1.5869875 0.19402488 -0.62447745 0 7 0
1.7130499 0.20943724 -0.62819588 0 8 0
1.8331969 0.22412638 -0.62397516 0 9 0
1.8932067 0.23146318 -0.59531868 0 10 0
1.9784442 0.24188431 -0.57156944 0 11 0
2.0355132 0.24886154 -0.53673595 0 12 0
2.0719759 0.2533195 -0.49474359 0 13 0
2.1217647 0.25940666 -0.45436475 0 14 0
2.1717818 0.26552173 -0.41210309 0 15 0
2.2267618 0.27224359 -0.36869636 0 16 0
2.2938213 0.28044227 -0.32476172 0 17 0
2.3366587 0.28567958 -0.27512649 0 18 0
2.3777864 0.29070783 -0.22359599 0 19 0
2.4189539 0.29574096 -0.17036687 0 20 0
2.4977283 0.30537191 -0.11714671 0 21 0
2.5452111 0.31117713 -0.059617929 0 22 0
2.6306596 0.32162407 7.5660289e-05 0 23 0
2.6970541 0.32974145 0.063329861 0 24 0
2.7741456 0.33916664 0.13027096 0 25 0
2.819684 0.34473416 0.19875327 0 26 0
2.9117596 0.3559913 0.27397728 0 27 0
3.0037355 0.36723626 0.3538456 0 28 0
3.1155198 0.38090301 0.44128144 0 29 0
3.2401397 0.39613903 0.5366779 0 30 0
3.4372313 0.4202354 0.65243119 0 31 0
1.0589737 0.14488108 -0.63387245 0 0 0
1.1088836 0.15170939 -0.62900913 0 1 0
1.1702939 0.16011111 -0.62812901 0 2 0
1.2230616 0.1673304 -0.62003839 0 3 0
1.3004309 0.1779155 -0.62144029 0 4 0
1.401214 0.19170392 -0.62973821 0 5 0
1.4821526 0.20277734 -0.6248129 0 6 0
1.5697041 0.21475551 -0.61882263 0 7 0
1.707554 0.23361515 -0.62734246 0 8 0
1.8128321 0.24801852 -0.6181885 0 9 0
1.8753067 0.25656584 -0.59078431 0 10 0
1.9557304 0.26756883 -0.56605589 0 11 0
2.0060573 0.27445418 -0.5299505 0 12 0
2.051451 0.28066459 -0.49075156 0 13 0
2.1159263 0.28948563 -0.45395526 0 14 0
2.1487751 0.29397979 -0.40849409 0 15 0
2.2201726 0.30374789 -0.36828747 0 16 0
2.2561157 0.30866536 -0.32001606 0 17 0
2.3057108 0.31545058 -0.27198634 0 18 0
2.3467004 0.32105851 -0.2210823 0 19 0
2.403928 0.32888797 -0.16962276 0 20 0
2.4380624 0.33355799 -0.11456049 0 21 0
2.5166984 0.34431636 -0.059059449 0 22 0
2.5864747 0.35386267 7.4527532e-05 0 23 0
2.635524 0.36057326 0.061999902 0 24 0
2.7278059 0.3731986 0.1283326 0 25 0
2.7673037 0.37860242 0.19542307 0 26 0
2.8497467 0.38988164 0.26863989 0 27 0
2.9403574 0.40227833 0.34702229 0 28 0
3.0392058 0.41580206 0.43127117 0 29 0
3.153271 0.43140763 0.52325869 0 30 0
3.324043 0.4547714 0.63211739 0 31 0
1.0392548 0.1573668 -0.62335372 0 0 0
1.0984234 0.16632625 -0.62436211 0 1 0
1.1579273 0.1753365 -0.62277466 0 2 0
1.2367976 0.18727925 -0.62829655 0 3 0
1.3121631 0.19869131 -0.62834144 0 4 0
1.3957633 0.21135028 -0.62858373 0 5 0
1.4779197 0.22379062 -0.6243149 0 6 0
1.5693868 0.23764083 -0.61997503 0 7 0
1.689077 0.25576463 -0.62183541 0 8 0
1.7950478 0.27181101 -0.61338776 0 9 0
1.840345 0.27867004 -0.58096725 0 10 0
1.9094888 0.28913999 -0.5538131 0 11 0
1.9918929 0.30161783 -0.52729505 0 12 0
2.0333445 0.30789453 -0.48742443 0 13 0
2.0789955 0.31480715 -0.446953 0 14 0
2.1213324 0.32121792 -0.40410972 0 15 0
2.1624017 0.32743675 -0.35944495 0 16 0
2.2248728 0.3368963 -0.31623602 0 17 0
2.261512 0.3424443 -0.26732337 0 18 0
2.3138113 0.35036361 -0.2184339 0 19 0
2.3550508 0.35660818 -0.16651706 0 20 0
2.4103835 0.36498681 -0.11349375 0 21 0
2.4833717 0.37603891 -0.058397699 0 22 0
2.534209 0.38373685 7.3172305e-05 0 23 0
2.594563 0.39287579 0.061162326 0 24 0
2.6812718 0.40600544 0.12640379 0 25 0
2.7390845 0.41475964 0.19382964 0 26 0
2.8123157 0.42584848 0.26565871 0 27 0
2.8795242 0.43602538 0.34054443 0 28 0
2.9752803 0.45052505 0.42307168 0 29 0
3.0713294 0.46506906 0.51071346 0 30 0
3.217485 0.48720032 0.6131171 0 31 0
1.1000335 0.18271136 -0.62669975 0 1 0
1.1722293 0.1947028 -0.63190097 0 2 0
1.2332425 0.20483688 -0.62791568 0 3 0
1.3020459 0.21626486 -0.62491506 0 4 0
1.3836591 0.22982049 -0.6245501 0 5 0
1.4783806 0.24555334 -0.62593013 0 6 0
1.5830306 0.26293534 -0.62678742 0 7 0
1.6776974 0.27865911 -0.61905098 0 8 0
1.7622447 0.29270211 -0.60354841 0 9 0
1.8155786 0.30156067 -0.57445264 0 10 0
1.8827796 0.3127225 -0.54730874 0 11 0
1.9490203 0.32372481 -0.51711947 0 12 0
2.0000131 0.33219451 -0.48052499 0 13 0
2.0594814 0.34207198 -0.44376493 0 14 0
2.089416 0.34704402 -0.39893517 0 15 0
2.169558 0.36035529 -0.36145484 0 16 0
2.1961749 0.36477622 -0.31286708 0 17 0
2.2242966 0.36944714 -0.26352239 0 18 0
2.2947719 0.38115284 -0.21712929 0 19 0
2.32761 0.38660711 -0.16495119 0 20 0
2.3735676 0.3942405 -0.11201449 0 21 0
2.4348438 0.40441823 -0.057386786 0 22 0
2.502099 0.41558909 7.2409508e-05 0 23 0
2.5583873 0.42493832 0.060446735 0 24 0
2.6102569 0.4335537 0.12333585 0 25 0
2.6978061 0.44809526 0.19134286 0 26 0
2.7734213 0.46065468 0.2625806 0 27 0
2.8389618 0.47154069 0.33651108 0 28 0
2.9197843 0.484965 0.41612482 0 29 0
3.0105832 0.50004637 0.50175112 0 30 0
3.117857 0.51786411 0.59548366 0 31 0
1.0930828 0.19767261 -0.62428778 0 1 0
1.1735649 0.21222697 -0.63419348 0 2 0
1.224596 0.22145541 -0.62506312 0 3 0
1.2961744 0.23439963 -0.62364346 0 4 0
1.3614353 0.24620137 -0.61604631 0 5 0
1.4824665 0.26808861 -0.62922031 0 6 0
1.5800246 0.28573096 -0.62715232 0 7 0
1.6447444 0.29743487 -0.60840029 0 8 0
1.7399096 0.31464452 -0.59738016 0 9 0
1.8038704 0.32621112 -0.57216692 0 10 0
1.8787718 0.33975628 -0.54750127 0 11 0
1.9054477 0.34458035 -0.50681537 0 12 0
1.9749848 0.35715538 -0.4756912 0 13 0
2.0330465 0.36765525 -0.43915781 0 14 0
2.0769541 0.37559548 -0.39754152 0 15 0
2.1168246 0.38280562 -0.35354593 0 16 0
2.1585188 0.3903456 -0.30826697 0 17 0
2.1983812 0.39755431 -0.26109949 0 18 0
2.2545002 0.40770283 -0.21384907 0 19 0
2.3021877 0.41632661 -0.16355513 0 20 0
2.3516436 0.42527017 -0.11125571 0 21 0
2.3972828 0.4335236 -0.056641962 0 22 0
2.4663279 0.44600967 7.1551724e-05 0 23 0
2.5233827 0.45632741 0.059767883 0 24 0
2.5753901 0.46573243 0.12199087 0 25 0
2.6544435 0.48002842 0.18873534 0 26 0
2.7121317 0.49046072 0.25741613 0 27 0
2.7827525 0.50323176 0.33066833 0 28 0
2.8487544 0.51516747 0.40701091 0 29 0
2.9603701 0.53535205 0.49460888 0 30 0
3.0479307 0.55118644 0.58357543 0 31 0
1.0899996 0.21326874 -0.62420636 0 1 0
1.1484553 0.22470616 -0.6222986 0 2 0
1.2158293 0.23788851 -0.6222626 0 3 0
1.2889448 0.25219426 -0.62183809 0 4 0
1.3868127 0.27134305 -0.62922251 0 5 0
1.4637431 0.28639522 -0.62294942 0 6 0
1.5650783 0.30622238 -0.62289566 0 7 0
1.6413668 0.32114896 -0.60878891 0 8 0
1.714728 0.3355028 -0.59032267 0 9 0
1.7705371 0.34642237 -0.56310904 0 10 0
1.8371565 0.35945708 -0.53681833 0 11 0
1.8859591 0.36900577 -0.50298506 0 12 0
1.9396712 0.37951505 -0.46844602 0 13 0
1.9803817 0.38748047 -0.42893583 0 14 0
2.0471935 0.40055281 -0.39290228 0 15 0
2.0897255 0.40887463 -0.34996155 0 16 0
2.1328182 0.4173061 -0.30541834 0 17 0
2.1626909 0.42315099 -0.25755358 0 18 0
2.2130716 0.4330084 -0.21048571 0 19 0
2.2834744 0.44678342 -0.16266334 0 20 0
2.3043718 0.45087218 -0.10931341 0 21 0
2.3728113 0.46426302 -0.056215011 0 22 0
2.4287207 0.47520223 7.0650778e-05 0 23 0
2.4910765 0.48740274 0.059161879 0 24 0
2.5416491 0.49729776 0.12071743 0 25 0
2.6210964 0.51284236 0.18686709 0 26 0
2.6675541 0.52193224 0.25386822 0 27 0
2.740701 0.53624409 0.32655007 0 28 0
2.8159873 0.55097461 0.40341482 0 29 0
2.8870423 0.56487721 0.48365888 0 30 0
2.97439 0.58196759 0.57103127 0 31 0
1.0814414 0.22771114 -0.62110829 0 1 0
1.1473728 0.24159384 -0.62352198 0 2 0
1.2209156 0.25707918 -0.62668484 0 3 0
1.3030822 0.27438045 -0.63048863 0 4 0
1.3793627 0.29044226 -0.62766427 0 5 0
1.4675395 0.30900899 -0.62638336 0 6 0
1.5676171 0.33008155 -0.62572241 0 7 0
1.6161764 0.34030637 -0.60119081 0 8 0
1.6934114 0.35656917 -0.58468121 0 9 0
1.7483608 0.36813945 -0.55767477 0 10 0
1.7998564 0.37898251 -0.52745026 0 11 0
1.8728162 0.3943451 -0.50093389 0 12 0
1.9212652 0.40454665 -0.46535161 0 13 0
1.9762026 0.41611442 -0.42927673 0 14 0
2.0272913 0.42687178 -0.39021531 0 15 0
2.058111 0.43336126 -0.34567052 0 16 0
2.0936656 0.44084772 -0.30068448 0 17 0
2.1204572 0.44648904 -0.25325909 0 18 0
2.1873806 0.46058062 -0.20864789 0 19 0
2.2399571 0.47165126 -0.16002789 0 20 0
2.2875814 0.48167917 -0.10883283 0 21 0
2.3305483 0.49072638 -0.055374477 0 22 0
2.3820691 0.50157475 6.9495421e-05 0 23 0
2.446588 0.51516002 0.058274448 0 24 0
2.5029755 0.52703309 0.11922667 0 25 0
2.5712361 0.54140627 0.18384603 0 26 0
2.6376994 0.55540091 0.25175774 0 27 0
2.7139225 0.57145065 0.3243008 0 28 0
2.7759743 0.58451647 0.39884031 0 29 0
2.8325944 0.59643853 0.4759188 0 30 0
2.9228938 0.61545217 0.56277847 0 31 0
1.0659833 0.24043882 -0.61414385 0 1 0
1.1579036 0.26117197 -0.63121158 0 2 0
1.2287875 0.27716026 -0.63269699 0 3 0
1.2949326 0.29207966 -0.62850386 0 4 0
1.3603545 0.30683598 -0.62094969 0 5 0
1.4691784 0.33138186 -0.62904298 0 6 0
1.5484499 0.349262 -0.6200037 0 7 0
1.5993546 0.36074385 -0.59679294 0 8 0
1.6657509 0.3757199 -0.57692856 0 9 0
1.7251577 0.38911948 -0.55199367 0 10 0
1.7921441 0.40422866 -0.52683175 0 11 0
1.8472446 0.41665688 -0.49563849 0 12 0
1.8966351 0.42779723 -0.46082184 0 13 0
1.9605823 0.44222087 -0.42721483 0 14 0
2.0026166 0.45170197 -0.38667074 0 15 0
2.034308 0.45885015 -0.34274065 0 16 0
2.0736911 0.46773323 -0.29874673 0 17 0
2.1144779 0.47693297 -0.25333437 0 18 0
2.169179 0.48927113 -0.20755845 0 19 0
2.2003708 0.4963066 -0.15769112 0 20 0
2.2390733 0.50503618 -0.10685799 0 21 0
2.2760503 0.51337653 -0.054248627 0 22 0
2.3525069 0.53062183 6.884749e-05 0 23 0
2.4335988 0.54891253 0.058146246 0 24 0
2.4796443 0.55929834 0.1184845 0 25 0
2.5376587 0.57238388 0.18201235 0 26 0
2.6040485 0.58735847 0.24932279 0 27 0
2.6644247 0.60097671 0.31938124 0 28 0
2.7346346 0.61681294 0.39412892 0 29 0
2.786906 0.62860304 0.46970603 0 30 0
2.8850632 0.65074301 0.55723083 0 31 0
1.0843792 0.26095182 -0.62682998 0 1 0
1.1531602 0.2775037 -0.63072652 0 2 0
1.2054217 0.29008025 -0.62274009 0 3 0
1.2936325 0.31130785 -0.62997109 0 4 0
1.3633317 0.32808068 -0.62438822 0 5 0
1.4608616 0.35155091 -0.62757224 0 6 0
1.5540009 0.37396449 -0.62430555 0 7 0
1.6115053 0.38780272 -0.60333639 0 8 0
1.6542504 0.39808917 -0.57486004 0 9 0
1.7145944 0.41261074 -0.55044705 0 10 0
1.7623947 0.42411372 -0.51981771 0 11 0
1.8104814 0.4356856 -0.48739782 0 12 0
1.8735448 0.4508616 -0.45673284 0 13 0
1.9232875 0.46283197 -0.42048869 0 14 0
1.9740113 0.47503847 -0.38242123 0 15 0
2.0086243 0.48336792 -0.33954433 0 16 0
2.0382888 0.49050662 -0.29462779 0 17 0
2.0864193 0.50208902 -0.250808 0 18 0
2.1325295 0.51318526 -0.20473351 0 19 0
2.1795607 0.52450317 -0.15672173 0 20 0
2.2230167 0.53496069 -0.10644624 0 21 0
2.2651117 0.54509073 -0.054168329 0 22 0
2.3212452 0.55859905 6.8159607e-05 0 23 0
2.3855517 0.57407409 0.05718872 0 24 0
2.4519167 0.59004462 0.11755112 0 25 0
2.5080898 0.60356247 0.18049268 0 26 0
2.5710135 0.6187048 0.24698247 0 27 0
2.6216147 0.63088185 0.31529981 0 28 0
2.6903281 0.64741743 0.38903895 0 29 0
2.747721 0.66122884 0.46464935 0 30 0
2.8375542 0.6828469 0.54988629 0 31 0
1.0680637 0.27325445 -0.61959612 0 1 0
1.1445534 0.29282367 -0.62824714 0 2 0
1.2097185 0.30949557 -0.62718421 0 3 0
1.2837242 0.32842925 -0.62737095 0 4 0
1.3658017 0.34942803 -0.62774575 0 5 0
1.4473776 0.3702985 -0.62399262 0 6 0
1.5419217 0.39448676 -0.62165767 0 7 0
1.5931339 0.40758893 -0.59858119 0 8 0
1.65605 0.42368543 -0.57753366 0 9 0
1.7090682 0.43724969 -0.5506258 0 10 0
1.7516311 0.44813901 -0.51848179 0 11 0
1.8107601 0.46326664 -0.48920783 0 12 0
1.8552099 0.47463873 -0.45387283 0 13 0
1.8788763 0.48069355 -0.4122411 0 14 0
1.9431889 0.49714732 -0.37778991 0 15 0
1.9839604 0.50757837 -0.33656871 0 16 0
2.0140221 0.5152694 -0.29215625 0 17 0
2.050606 0.524629 -0.24738023 0 18 0
2.0848315 0.53338534 -0.20086664 0 19 0
2.1404476 0.54761422 -0.15445709 0 20 0
2.1897657 0.5602318 -0.10522725 0 21 0
2.2291286 0.57030243 -0.053497549 0 22 0
2.2817566 0.58376688 6.7238558e-05 0 23 0
2.3536499 0.60216004 0.056624763 0 24 0
2.4169726 0.61836064 0.11628824 0 25 0
2.4687366 0.63160402 0.178293 0 26 0
2.5248084 0.64594948 0.24340707 0 27 0
2.597785 0.66461986 0.31354582 0 28 0
2.643744 0.67637801 0.38366327 0 29 0
2.7354941 0.69985151 0.46422815 0 30 0
2.8056407 0.71779782 0.54563689 0 31 0
1.0703125 0.29021242 -0.62324661 0 1 0
1.1289916 0.30612311 -0.62204659 0 2 0
1.2161192 0.3297475 -0.63288486 0 3 0
1.2797747 0.34700754 -0.6278038 0 4 0
1.345395 0.3648003 -0.6207028 0 5 0
1.4510571 0.39345029 -0.6279425 0 6 0
1.5409645 0.41782847 -0.62361902 0 7 0
1.5792743 0.42821607 -0.59561568 0 8 0
1.6200943 0.43928432 -0.56712914 0 9 0
1.6766315 0.45461422 -0.5422163 0 10 0
1.7197472 0.46630493 -0.51096749 0 11 0
1.7829003 0.48342875 -0.48350096 0 12 0
1.834452 0.49740684 -0.45049012 0 13 0
1.8596106 0.50422853 -0.40955561 0 14 0
1.9103312 0.51798129 -0.37280509 0 15 0
1.9628185 0.53221309 -0.3342402 0 16 0
1.9905431 0.53973055 -0.28984132 0 17 0
2.0394528 0.55299228 -0.24696434 0 18 0
2.0558879 0.55744857 -0.1988264 0 19 0
2.1019092 0.56992716 -0.15224917 0 20 0
2.1382325 0.57977611 -0.10313908 0 21 0
2.2030883 0.59736162 -0.053072367 0 22 0
2.2514529 0.61047554 6.6596236e-05 0 23 0
2.3009603 0.62389934 0.055566296 0 24 0
2.3776493 0.64469332 0.11482847 0 25 0
2.4362719 0.66058874 0.17661317 0 26 0
2.4902751 0.67523152 0.24098492 0 27 0
2.5393627 0.68854153 0.30765241 0 28 0
2.6083148 0.70723766 0.37995186 0 29 0
2.6721385 0.72454327 0.45518968 0 30 0
2.7658796 0.74996096 0.53993654 0 31 0
1.0683657 0.3061648 -0.62460083 0 1 0
1.1297286 0.32374975 -0.62494183 0 2 0
1.1915547 0.34146741 -0.62258095 0 3 0
1.2586019 0.36068135 -0.6198864 0 4 0
1.3415704 0.38445792 -0.62141347 0 5 0
1.438758 0.41230923 -0.62510997 0 6 0
1.5175439 0.43488714 -0.61659682 0 7 0
1.5556715 0.44581348 -0.58906025 0 8 0
1.6115444 0.46182516 -0.56639212 0 9 0
1.6491066 0.47258949 -0.5354476 0 10 0
1.7005199 0.48732316 -0.50727522 0 11 0
1.7608976 0.50462574 -0.47944373 0 12 0
1.8060074 0.51755303 -0.4452785 0 13 0
1.8497576 0.53009063 -0.40901476 0 14 0
1.8766228 0.53778952 -0.36769137 0 15 0
1.9329616 0.55393463 -0.33047229 0 16 0
1.9770453 0.56656784 -0.28902712 0 17 0
2.009562 0.57588625 -0.24431789 0 18 0
2.0371017 0.58377838 -0.19779742 0 19 0
2.0708795 0.59345824 -0.15060145 0 20 0
2.1222787 0.60818785 -0.10277892 0 21 0
2.1667778 0.62094009 -0.052406386 0 22 0
2.2341764 0.64025468 6.6349487e-05 0 23 0
2.277082 0.65255028 0.055209558 0 24 0
2.3450944 0.67204088 0.11370916 0 25 0
2.3967574 0.68684608 0.17444345 0 26 0
2.4446044 0.70055765 0.23751137 0 27 0
2.5269618 0.72415912 0.3073743 0 28 0
2.5902715 0.742302 0.37883246 0 29 0
2.6531341 0.76031673 0.45375973 0 30 0
2.7272656 0.78156078 0.53452766 0 31 0
1.0651771 0.32181746 -0.62536561 0 1 0
1.1324242 0.34213454 -0.62907755 0 2 0
1.1985784 0.36212143 -0.62889463 0 3 0
1.269278 0.38348162 -0.62778372 0 4 0
1.3500662 0.40788978 -0.6279887 0 5 0
1.4224913 0.42977127 -0.62065154 0 6 0
1.515722 0.45793867 -0.61845642 0 7 0
1.5599079 0.47128838 -0.59315795 0 8 0
1.5957309 0.48211145 -0.56320196 0 9 0
1.6482078 0.49796605 -0.53741497 0 10 0
1.6837479 0.50870365 -0.50439245 0 11 0
1.7237023 0.5207749 -0.47129774 0 12 0
1.7847426 0.5392167 -0.44189319 0 13 0
1.8246411 0.55127108 -0.4051643 0 14 0
1.8647741 0.56339633 -0.36691225 0 15 0
1.9007434 0.57426357 -0.32633591 0 16 0
1.9458292 0.58788514 -0.2856645 0 17 0
1.9688934 0.59485346 -0.24038403 0 18 0
2.011508 0.60772836 -0.19613686 0 19 0
2.0467308 0.61837006 -0.14947362 0 20 0
2.094475 0.63279486 -0.10186063 0 21 0
2.1451478 0.64810443 -0.052102264 0 22 0
2.1925721 0.66243255 6.5388835e-05 0 23 0
2.2545545 0.68115902 0.054894131 0 24 0
2.3196375 0.70082229 0.11294963 0 25 0
2.3630283 0.71393174 0.17271459 0 26 0
2.4267771 0.73319191 0.2367747 0 27 0
2.4840493 0.75049531 0.30343011 0 28 0
2.5360873 0.76621729 0.37247372 0 29 0
2.625963 0.79337108 0.45100868 0 30 0
2.6986713 0.81533813 0.53115624 0 31 0
1.0532576 0.33473957 -0.621117 0 1 0
1.1257437 0.35777667 -0.62814689 0 2 0
1.1995162 0.38122258 -0.63218498 0 3 0
1.2448311 0.39562425 -0.61842972 0 4 0
1.3419979 0.42650518 -0.62701112 0 5 0
1.4231361 0.45229203 -0.6236937 0 6 0
1.5008895 0.4770031 -0.61512721 0 7 0
1.5408524 0.48970386 -0.58851707 0 8 0
1.5769455 0.50117475 -0.55904639 0 9 0
1.6192911 0.5146327 -0.53033382 0 10 0
1.6681736 0.53016824 -0.50194871 0 11 0
1.7157389 0.54528517 -0.47120616 0 12 0
1.7533644 0.55724305 -0.43605432 0 13 0
1.8084291 0.57474339 -0.40334982 0 14 0
1.8459419 0.58666545 -0.3648217 0 15 0
1.8824645 0.5982728 -0.32463461 0 16 0
1.9239851 0.61146867 -0.28371346 0 17 0
1.9592935 0.62269014 -0.24027553 0 18 0
1.9907098 0.63267463 -0.19497192 0 19 0
2.019352 0.64177752 -0.14812982 0 20 0
2.0721064 0.65854359 -0.10122083 0 21 0
2.1186173 0.67332536 -0.051686667 0 22 0
2.1607993 0.6867314 6.4727785e-05 0 23 0
2.2275341 0.70794058 0.054477371 0 24 0
2.284682 0.72610307 0.11174217 0 25 0
2.331032 0.7408337 0.1711335 0 26 0
2.3964696 0.76163065 0.23485725 0 27 0
2.4451048 0.77708757 0.30000091 0 28 0
2.5265357 0.80296749 0.37272075 0 29 0
2.5896859 0.82303745 0.44675565 0 30 0
2.6373208 0.83817637 0.52138901 0 31 0
1.0562799 0.35242233 -0.62580991 0 1 0
1.1148282 0.37195668 -0.62496293 0 2 0
1.1771489 0.39274964 -0.62329566 0 3 0
1.255833 0.41900218 -0.62681073 0 4 0
1.3338439 0.44503012 -0.62611341 0 5 0
1.4161136 0.47247896 -0.62351596 0 6 0
1.4906785 0.49735719 -0.61379713 0 7 0
1.5139285 0.50511444 -0.58093566 0 8 0
1.5725135 0.524661 -0.56008005 0 9 0
1.5973713 0.53295469 -0.52559948 0 10 0
1.6389825 0.54683799 -0.49546966 0 11 0
1.7020963 0.56789565 -0.46964371 0 12 0
1.7290078 0.57687449 -0.43200615 0 13 0
1.7782975 0.59331977 -0.39848262 0 14 0
1.8252817 0.6089958 -0.36242417 0 15 0
1.8635969 0.62177944 -0.32288256 0 16 0
1.8910345 0.63093382 -0.28015751 0 17 0
1.9275941 0.64313179 -0.2374927 0 18 0
1.9656503 0.65582901 -0.19341715 0 19 0
2.0070806 0.66965204 -0.14791761 0 20 0
2.0606177 0.68751442 -0.10112997 0 21 0
2.0870559 0.69633538 -0.051154602 0 22 0
2.1299574 0.71064931 6.4102045e-05 0 23 0
2.1936543 0.73190135 0.053899482 0 24 0
2.2387578 0.74694997 0.11000769 0 25 0
2.3084676 0.7702083 0.17026885 0 26 0
2.3788075 0.79367685 0.23421568 0 27 0
2.4179881 0.80674917 0.29806009 0 28 0
2.4818153 0.82804483 0.36783424 0 29 0
2.5597513 0.85404778 0.44365495 0 30 0
2.6206195 0.87435615 0.52050811 0 31 0
1.0450853 0.36539108 -0.62221241 0 1 0
1.1114104 0.38858014 -0.62610072 0 2 0
1.1789593 0.41219711 -0.62731391 0 3 0
1.2600418 0.44054586 -0.63199401 0 4 0
1.32253 0.46239349 -0.62384546 0 5 0
1.4296784 0.49985555 -0.63257396 0 6 0
1.4693011 0.51370877 -0.6079601 0 7 0
1.5168573 0.53033572 -0.58491242 0 8 0
1.5482199 0.54130101 -0.55413026 0 9 0
1.5788337 0.55200446 -0.52204615 0 10 0
1.621003 0.56674802 -0.49243629 0 11 0
1.6642323 0.58186215 -0.46144694 0 12 0
1.7173618 0.6004377 -0.43119952 0 13 0
1.7586914 0.61488771 -0.39602089 0 14 0
1.7964846 0.62810129 -0.35845464 0 15 0
1.832428 0.64066809 -0.31903845 0 16 0
1.8853434 0.65916878 -0.28068343 0 17 0
1.9098533 0.66773814 -0.23646025 0 18 0
1.9420236 0.67898577 -0.19202895 0 19 0
1.9760735 0.69089055 -0.14634627 0 20 0
2.0336008 0.71100366 -0.10029323 0 21 0
2.0771053 0.72621405 -0.051160246 0 22 0
2.1252279 0.74303913 6.4273197e-05 0 23 0
2.166837 0.75758684 0.053501524 0 24 0
2.2142875 0.77417684 0.10933857 0 25 0
2.2790396 0.79681599 0.1689222 0 26 0
2.3337281 0.81593663 0.23090342 0 27 0
2.3795481 0.83195651 0.29475936 0 28 0
2.4435089 0.85431904 0.36393186 0 29 0
2.5054867 0.87598825 0.43637827 0 30 0
2.5817544 0.90265357 0.51530212 0 31 0
1.0362053 0.37901476 -0.6200918 0 1 0
1.1072348 0.40499538 -0.62694991 0 2 0
1.1776768 0.43076107 -0.62984776 0 3 0
1.2449861 0.45538092 -0.62764752 0 4 0
1.3114791 0.47970217 -0.62180775 0 5 0
1.408198 0.51507926 -0.62626773 0 6 0
1.4479723 0.52962756 -0.60220987 0 7 0
1.487523 0.54409409 -0.57654482 0 8 0
1.5164292 0.55466717 -0.54553759 0 9 0
1.5691174 0.57393909 -0.52149636 0 10 0
1.6119553 0.58960789 -0.49220103 0 11 0
1.6558497 0.6056633 -0.46147913 0 12 0
1.6870298 0.61706811 -0.42575774 0 13 0
1.7346818 0.63449782 -0.39261925 0 14 0
1.7695007 0.64723366 -0.35488266 0 15 0
1.8185256 0.66516554 -0.318243 0 16 0
1.8450787 0.67487794 -0.27609879 0 17 0
1.8824918 0.68856263 -0.23426886 0 18 0
1.9127173 0.69961822 -0.19010185 0 19 0
1.9649103 0.71870893 -0.14626642 0 20 0
1.9933622 0.72911584 -0.09881331 0 21 0
2.0369875 0.74507278 -0.050429631 0 22 0
2.0844507 0.76243347 6.3363528e-05 0 23 0
2.1377406 0.78192538 0.053054009 0 24 0
2.2068615 0.80720788 0.10953118 0 25 0
2.2384417 0.81875902 0.16676463 0 26 0
2.2947712 0.83936286 0.22821428 0 27 0
2.3574998 0.86230719 0.29352707 0 28 0
2.415055 0.88335925 0.36154014 0 29 0
2.4791505 0.90680355 0.4340075 0 30 0
2.5719604 0.94075078 0.51598203 0 31 0
1.1028031 0.42136538 -0.62779129 0 2 0
1.1625197 0.44418222 -0.62507766 0 3 0
1.2428229 0.4748649 -0.62991905 0 4 0
1.3223271 0.50524235 -0.63031536 0 5 0
1.3731726 0.52466971 -0.61396784 0 6 0
1.4282588 0.5457173 -0.59719849 0 7 0
1.4787843 0.56502241 -0.57623345 0 8 0
1.5142628 0.57857823 -0.54768139 0 9 0
1.5514394 0.59278291 -0.51838785 0 10 0
1.5988868 0.61091185 -0.49083039 0 11 0
1.622177 0.6198107 -0.45452061 0 12 0
1.6802031 0.6419816 -0.42631021 0 13 0
1.7166585 0.65591073 -0.39062485 0 14 0
1.7459959 0.66712016 -0.35204762 0 15 0
1.789214 0.68363315 -0.31479359 0 16 0
1.816247 0.69396204 -0.27324277 0 17 0
1.8651793 0.71265846 -0.2333599 0 18 0
1.8855759 0.72045165 -0.18840991 0 19 0
1.9268696 0.73622942 -0.14420436 0 20 0
1.9680023 0.75194561 -0.098079674 0 21 0
2.0170829 0.77069867 -0.050204817 0 22 0
2.0561943 0.7856425 6.2839979e-05 0 23 0
2.1100094 0.8062045 0.052646779 0 24 0
2.1699226 0.82909644 0.10827573 0 25 0
2.2162764 0.8468076 0.16599931 0 26 0
2.2719042 0.8680622 0.22715256 0 27 0
2.3218555 0.8871479 0.29064032 0 28 0
2.3928015 0.91425532 0.36013085 0 29 0
2.4547133 0.93791097 0.43203539 0 30 0
2.5220003 0.96362036 0.50867414 0 31 0
1.0961944 0.43692011 -0.62752497 0 2 0
1.1553594 0.460502 -0.62470776 0 3 0
1.226078 0.48868901 -0.62491333 0 4 0
1.301224 0.51864058 -0.62373078 0 5 0
1.3481485 0.53734368 -0.60615587 0 6 0
1.3838172 0.55156052 -0.5818575 0 7 0
1.4453591 0.57608986 -0.56636387 0 8 0
1.501974 0.59865534 -0.54627997 0 9 0
1.5400163 0.61381823 -0.51745367 0 10 0
1.5739673 0.62735039 -0.48588735 0 11 0
1.6177747 0.64481109 -0.45582646 0 12 0
1.6618454 0.6623767 -0.42401454 0 13 0
1.7034214 0.67894804 -0.38978416 0 14 0
1.7226611 0.6866166 -0.34928843 0 15 0
1.7566762 0.70017427 -0.31080031 0 16 0
1.7986095 0.71688801 -0.27210519 0 17 0
1.8310127 0.72980326 -0.23036852 0 18 0
1.8683811 0.74469757 -0.18773763 0 19 0
1.9074804 0.76028162 -0.143553 0 20 0
1.9504889 0.77742398 -0.097751416 0 21 0
1.9895949 0.79301077 -0.04979806 0 22 0
2.043817 0.81462258 6.2811625e-05 0 23 0
2.0840161 0.83064508 0.052289512 0 24 0
2.1287894 0.84849077 0.10681832 0 25 0
2.1861932 0.87137073 0.16466339 0 26 0
2.2311175 0.88927668 0.22432424 0 27 0
2.2964284 0.91530824 0.2890678 0 28 0
2.3552158 0.9387396 0.35645977 0 29 0
2.4138253 0.96210015 0.42721894 0 30 0
2.4980917 0.99568695 0.50667447 0 31 0
1.0874255 0.45156601 -0.62614107 0 2 0
1.161605 0.4823699 -0.63175327 0 3 0
1.2199279 0.50658917 -0.62541038 0 4 0
1.2902689 0.53579909 -0.62209195 0 5 0
1.3245096 0.55001795 -0.59900576 0 6 0
1.3806579 0.57333416 -0.58391988 0 7 0
1.4283825 0.59315234 -0.56298077 0 8 0
1.4781269 0.61380929 -0.54074663 0 9 0
1.5343648 0.63716274 -0.51856601 0 10 0
1.5658621 0.65024233 -0.48620856 0 11 0
1.5986634 0.66386348 -0.45307258 0 12 0
1.6333272 0.67825806 -0.41917229 0 13 0
1.6679432 0.69263268 -0.38389513 0 14 0
1.7013768 0.70651639 -0.34698772 0 15 0
1.7416246 0.72322977 -0.30993709 0 16 0
1.7729373 0.7362327 -0.26978794 0 17 0
1.8101267 0.75167608 -0.22907095 0 18 0
1.849182 0.76789421 -0.18689375 0 19 0
1.8817539 0.78142005 -0.14244404 0 20 0
1.9133548 0.79454267 -0.096450463 0 21 0
1.9630184 0.81516612 -0.049419846 0 22 0
2.0108392 0.83502424 6.2159088e-05 0 23 0
2.0497456 0.85118061 0.051730033 0 24 0
2.1094079 0.87595606 0.10646402 0 25 0
2.1599839 0.89695829 0.16363955 0 26 0
2.1863201 0.90789467 0.22110407 0 27 0
2.2602711 0.9386037 0.28617823 0 28 0
2.3239381 0.96504223 0.3537803 0 29 0
2.3936565 0.99399358 0.42612377 0 30 0
2.4653354 1.023759 0.50295126 0 31 0
1.024453 0.44271085 -0.62721348 0 1 0
1.0845915 0.46869928 -0.62830776 0 2 0
1.141661 0.49336153 -0.62468314 0 3 0
1.2068487 0.521532 -0.62246841 0 4 0
1.2745942 0.55080777 -0.61827242 0 5 0
1.2990528 0.56137741 -0.59106636 0 6 0
1.3513738 0.58398753 -0.57501113 0 7 0
1.4101732 0.60939735 -0.55918437 0 8 0
1.4630951 0.63226718 -0.53850311 0 9 0
1.5037926 0.64985442 -0.51132488 0 10 0
1.5540667 0.67157996 -0.48548108 0 11 0
1.583799 0.68442863 -0.45159003 0 12 0
1.6066869 0.69431949 -0.41484338 0 13 0
1.6497451 0.71292686 -0.38201618 0 14 0
1.6705505 0.72191769 -0.34277311 0 15 0
1.7188411 0.74278617 -0.30774307 0 16 0
1.7437414 0.75354671 -0.26695913 0 17 0
1.774377 0.76678568 -0.22591262 0 18 0
1.8158077 0.78468972 -0.18463691 0 19 0
1.8542602 0.80130672 -0.14121658 0 20 0
1.8969282 0.81974542 -0.096204028 0 21 0
1.9403517 0.83851057 -0.049146321 0 22 0
1.9779943 0.85477763 6.151569e-05 0 23 0
2.0304511 0.87744647 0.051554773 0 24 0
2.0855703 0.90126592 0.10590115 0 25 0
2.117805 0.91519588 0.16141997 0 26 0
2.1793687 0.94180036 0.22174166 0 27 0
2.2280757 0.96284866 0.28381774 0 28 0
2.2809956 0.98571765 0.34935507 0 29 0
2.3472703 1.0143578 0.42040762 0 30 0
2.4312065 1.0506303 0.49900547 0 31 0
0.96031857 0.43140948 -0.6243434 0 0 0
1.0212327 0.45877433 -0.62919784 0 1 0
1.0640433 0.47800633 -0.62030411 0 2 0
1.144226 0.5140273 -0.63004786 0 3 0
1.2047098 0.54119879 -0.62529659 0 4 0
1.2660538 0.5687567 -0.61801529 0 5 0
1.3080329 0.58761519 -0.59891778 0 6 0
1.3493577 0.60617983 -0.57778597 0 7 0
1.3896233 0.62426853 -0.55452204 0 8 0
1.428007 0.64151192 -0.52891409 0 9 0
1.4790137 0.66442591 -0.50608128 0 10 0
1.5150157 0.68059927 -0.47627628 0 11 0
1.5572323 0.69956452 -0.44682434 0 12 0
1.5799177 0.7097556 -0.4105126 0 13 0
1.6334392 0.7337994 -0.3806335 0 14 0
1.6671796 0.74895674 -0.34424582 0 15 0
1.6951547 0.7615242 -0.30542248 0 16 0
1.7460402 0.78438383 -0.26900238 0 17 0
1.755221 0.78850812 -0.22488761 0 18 0
1.7965827 0.80708927 -0.18383789 0 19 0
1.8313206 0.82269484 -0.14035198 0 20 0
1.8737155 0.84174013 -0.095628023 0 21 0
1.9213836 0.86315429 -0.048973799 0 22 0
1.964391 0.88247478 6.1479157e-05 0 23 0
1.988449 0.89328247 0.050807748 0 24 0
2.0512242 0.92148334 0.10481612 0 25 0
2.0972266 0.94214928 0.16086286 0 26 0
2.1534846 0.96742243 0.22049436 0 27 0
2.1894834 0.9835943 0.28066638 0 28 0
2.2494173 1.0105188 0.34669837 0 29 0
2.3230703 1.0436064 0.41870582 0 30 0
2.3877881 1.0726799 0.49319467 0 31 0
0.95323712 0.44473204 -0.62381411 0 0 0
0.99992937 0.46651629 -0.62012303 0 1 0
1.065623 0.49716559 -0.62530947 0 2 0
1.1271424 0.52586746 -0.62472171 0 3 0
1.1859739 0.55331522 -0.61961907 0 4 0
1.2652445 0.59029883 -0.62168097 0 5 0
1.3131158 0.61263323 -0.60519826 0 6 0
1.332021 0.6214534 -0.57411253 0 7 0
1.3898717 0.64844358 -0.55826771 0 8 0
1.4192804 0.66216421 -0.52913821 0 9 0
1.4735533 0.68748516 -0.50752801 0 10 0
1.5101933 0.70457953 -0.47788173 0 11 0
1.5224048 0.71027678 -0.43970323 0 12 0
1.5662799 0.73074669 -0.40964484 0 13 0
1.6178619 0.75481224 -0.37948233 0 14 0
1.6499389 0.76977777 -0.34292585 0 15 0
1.6656547 0.77710992 -0.30208054 0 16 0
1.6975137 0.79197371 -0.26324567 0 17 0
1.7349643 0.80944622 -0.22375375 0 18 0
1.7691654 0.82540274 -0.18222262 0 19 0
1.8089545 0.84396636 -0.13954937 0 20 0
1.8407279 0.85879022 -0.094562121 0 21 0
1.8877311 0.88071954 -0.048432391 0 22 0
1.9126848 0.89236164 6.0254497e-05 0 23 0
1.9685068 0.91840541 0.050628901 0 24 0
2.0311465 0.94762987 0.10447258 0 25 0
2.0579004 0.96011192 0.15888427 0 26 0
2.1055164 0.98232704 0.21700032 0 27 0
2.1730151 1.0138185 0.28038678 0 28 0
2.2373395 1.0438291 0.3471041 0 29 0
2.3000367 1.0730804 0.4172799 0 30 0
2.3707476 1.1060705 0.49289453 0 31 0
0.95740777 0.46347675 -0.63082021 0 0 0
1.0069901 0.4874793 -0.62876469 0 1 0
1.0603601 0.5133155 -0.62646842 0 2 0
1.1188647 0.5416373 -0.62436676 0 3 0
1.1838478 0.57309532 -0.6227302 0 4 0
1.2469914 0.60366285 -0.61689466 0 5 0
1.3039105 0.63121712 -0.60505772 0 6 0
1.3428259 0.65005594 -0.58272022 0 7 0
1.3775429 0.66686225 -0.55709249 0 8 0
1.407513 0.68137068 -0.52833295 0 9 0
1.4608114 0.70717216 -0.5065738 0 10 0
1.4846927 0.71873301 -0.4730193 0 11 0
1.5233561 0.73744977 -0.44298124 0 12 0
1.5520539 0.75134224 -0.40869501 0 13 0
1.5910444 0.77021736 -0.37573946 0 14 0
1.6068842 0.77788538 -0.33625701 0 15 0
1.6565264 0.8019169 -0.30247572 0 16 0
1.6750911 0.81090403 -0.2615416 0 17 0
1.7100418 0.82782346 -0.22204496 0 18 0
1.7492671 0.84681231 -0.18140298 0 19 0
1.784326 0.86378407 -0.13858902 0 20 0
1.8198169 0.88096511 -0.094126016 0 21 0
1.8680837 0.90433085 -0.048255466 0 22 0
1.9070586 0.9231984 6.0487342e-05 0 23 0
1.9408445 0.93955398 0.050258171 0 24 0
2.0024574 0.9693805 0.10369999 0 25 0
2.0369489 0.98607767 0.15834014 0 26 0
2.0904641 1.0119841 0.21691963 0 27 0
2.1371534 1.0345863 0.27764183 0 28 0
2.1949198 1.0625507 0.34284741 0 29 0
2.2621832 1.0951126 0.41321382 0 30 0
2.33215 1.1289833 0.4881795 0 31 0
0.93636596 0.46994945 -0.62132454 0 0 0
0.9981724 0.50096929 -0.62767196 0 1 0
1.0517974 0.52788293 -0.62580949 0 2 0
1.1180391 0.56112874 -0.62832367 0 3 0
1.1786029 0.5915249 -0.62436104 0 4 0
1.2327363 0.61869377 -0.6141606 0 5 0
1.2942041 0.64954358 -0.60480589 0 6 0
1.3349454 0.66999114 -0.58340228 0 7 0
1.3664595 0.68580765 -0.55652308 0 8 0
1.4114792 0.70840245 -0.53357321 0 9 0
1.4164343 0.71088934 -0.49466279 0 10 0
1.4622827 0.73389995 -0.4691782 0 11 0
1.5149355 0.76032573 -0.4436518 0 12 0
1.5299748 0.76787376 -0.40573367 0 13 0
1.5624555 0.7841754 -0.37160057 0 14 0
1.5959115 0.8009665 -0.3363255 0 15 0
1.6408622 0.82352662 -0.30173695 0 16 0
1.6667389 0.83651376 -0.26208013 0 17 0
1.7045162 0.85547376 -0.22289461 0 18 0
1.7279675 0.86724365 -0.18046296 0 19 0
1.7647232 0.88569081 -0.13803698 0 20 0
1.8001004 0.90344614 -0.093765475 0 21 0
1.8325247 0.9197194 -0.047672093 0 22 0
1.8700024 0.93852901 5.973197e-05 0 23 0
1.9124374 0.95982659 0.049873222 0 24 0
1.9628732 0.98513961 0.10236982 0 25 0
2.0168319 1.0122207 0.15788645 0 26 0
2.0713336 1.0395744 0.2164564 0 27 0
2.1029463 1.0554404 0.27513233 0 28 0
2.1755362 1.0918722 0.34222579 0 29 0
2.2233243 1.1158565 0.40899137 0 30 0
2.2816823 1.1451455 0.48099709 0 31 0
0.92860013 0.48281178 -0.62069356 0 0 0
0.98445988 0.51185519 -0.62359238 0 1 0
1.0371972 0.53927517 -0.62165153 0 2 0
1.1077107 0.57593763 -0.62708783 0 3 0
1.1705866 0.60862899 -0.62466538 0 4 0
1.2330649 0.64111364 -0.61883271 0 5 0
1.2851293 0.66818374 -0.60497254 0 6 0
1.3178574 0.68520027 -0.58016104 0 7 0
1.3702741 0.71245354 -0.56217229 0 8 0
1.3875016 0.72141075 -0.5283584 0 9 0
1.4038686 0.72992045 -0.49387246 0 10 0
1.456984 0.75753707 -0.47090891 0 11 0
1.480063 0.76953667 -0.4366203 0 12 0
1.5106341 0.78543162 -0.40354466 0 13 0
1.548961 0.80535913 -0.37109473 0 14 0
1.5823443 0.8227163 -0.3359136 0 15 0
1.6057293 0.83487499 -0.29744339 0 16 0
1.6434577 0.85449123 -0.2603159 0 17 0
1.6663485 0.86639297 -0.21950269 0 18 0
1.7005495 0.8841753 -0.17890289 0 19 0
1.7361151 0.90266711 -0.13679586 0 20 0
1.7825353 0.92680264 -0.093531944 0 21 0
1.8116702 0.9419508 -0.047475453 0 22 0
1.8427503 0.95811051 5.9293456e-05 0 23 0
1.9014634 0.98863751 0.04995095 0 24 0
1.9394059 1.0083652 0.10188822 0 25 0
1.9797589 1.0293461 0.15612161 0 26 0
2.0340178 1.0575572 0.21411681 0 27 0
2.0888336 1.0860579 0.27529156 0 28 0
2.1393514 1.1123239 0.3390035 0 29 0
2.1976571 1.142639 0.40723664 0 30 0
2.2662499 1.1783029 0.48124996 0 31 0
0.92730564 0.4991262 -0.62453967 0 0 0
0.97061992 0.52244025 -0.61949897 0 1 0
1.0364116 0.55785298 -0.6259023 0 2 0
1.0944386 0.58908623 -0.62428379 0 3 0
1.160108 0.62443304 -0.62377924 0 4 0
1.2151662 0.65406841 -0.61448556 0 5 0
1.277432 0.68758315 -0.6059199 0 6 0
1.3196586 0.71031189 -0.58536988 0 7 0
1.3514241 0.72740972 -0.55865318 0 8 0
1.3728421 0.73893809 -0.52674967 0 9 0
1.3958108 0.75130111 -0.49477023 0 10 0
1.433987 0.77184963 -0.46699899 0 11 0
1.4496008 0.78025383 -0.43088439 0 12 0
1.4946448 0.80449891 -0.40230829 0 13 0
1.5231019 0.81981611 -0.36767316 0 14 0
1.5382923 0.82799238 -0.32904407 0 15 0
1.5836186 0.85238945 -0.29557738 0 16 0
1.6054146 0.86412126 -0.25622293 0 17 0
1.6477276 0.88689637 -0.21869963 0 18 0
1.6706544 0.8992368 -0.17709379 0 19 0
1.7134835 0.92228979 -0.13603887 0 20 0
1.7531967 0.94366556 -0.092691749 0 21 0
1.7942213 0.96574724 -0.04737559 0 22 0
1.814352 0.97658265 5.8823443e-05 0 23 0
1.8721386 1.0076866 0.049554422 0 24 0
1.9125059 1.0294144 0.10123873 0 25 0
1.9553822 1.0524929 0.15537138 0 26 0
2.0041549 1.0787449 0.21257681 0 27 0
2.0665486 1.1123285 0.27442476 0 28 0
2.1265497 1.1446245 0.33953634 0 29 0
2.1657052 1.1657001 0.40436623 0 30 0
2.2399452 1.20566 0.47927952 0 31 0
0.91746122 0.51089555 -0.62277073 0 0 0
0.97306579 0.54185939 -0.62594616 0 1 0
1.0242928 0.57038552 -0.62345016 0 2 0
1.0856551 0.60455567 -0.62414557 0 3 0
1.1424357 0.63617438 -0.61910975 0 4 0
1.2109592 0.67433214 -0.6171757 0 5 0
1.2670242 0.70555246 -0.6057114 0 6 0
1.3043134 0.72631729 -0.58311492 0 7 0
1.3336034 0.74262762 -0.55562359 0 8 0
1.355577 0.7548638 -0.52421725 0 9 0
1.3916241 0.77493691 -0.49716702 0 10 0
1.4178584 0.78954566 -0.46537918 0 11 0
1.4453241 0.80484015 -0.43299305 0 12 0
1.4741702 0.8209033 -0.39991891 0 13 0
1.5005218 0.83557743 -0.36507207 0 14 0
1.5323707 0.85331273 -0.33035615 0 15 0
1.5681131 0.87321621 -0.29498598 0 16 0
1.5959728 0.88873005 -0.25671995 0 17 0
1.6294558 0.90737534 -0.21797596 0 18 0
1.6532854 0.920645 -0.17663139 0 19 0
1.6859193 0.93881744 -0.13490349 0 20 0
1.7343557 0.96578962 -0.092417017 0 21 0
1.7649697 0.98283732 -0.046969857 0 22 0
1.79414 0.99908102 5.8625774e-05 0 23 0
1.8467473 1.0283759 0.049266901 0 24 0
1.883392 1.0487818 0.10048193 0 25 0
1.9164115 1.067169 0.15347283 0 26 0
1.9818742 1.1036223 0.21186736 0 27 0
2.0359304 1.133724 0.27248585 0 28 0
2.072933 1.1543291 0.33357945 0 29 0
2.1444023 1.1941273 0.40353864 0 30 0
2.1961417 1.2229389 0.47360387 0 31 0
0.91214168 0.52517515 -0.6241985 0 0 0
0.95608413 0.55047548 -0.6200273 0 1 0
1.0202521 0.58742088 -0.62604433 0 2 0
1.0849724 0.62468427 -0.62882912 0 3 0
1.1358315 0.6539669 -0.6205399 0 4 0
1.1895874 0.68491739 -0.61121726 0 5 0
1.2407035 0.71434808 -0.59795535 0 6 0
1.2885309 0.74188524 -0.58074695 0 7 0
1.3122314 0.75553101 -0.55116844 0 8 0
1.3394387 0.77119583 -0.52219152 0 9 0
1.3674817 0.78734195 -0.49251768 0 10 0
1.4014578 0.80690402 -0.46373945 0 11 0
1.431929 0.82444817 -0.43247113 0 12 0
1.4592253 0.8401643 -0.39908609 0 13 0
1.4796432 0.85192013 -0.36292195 0 14 0
1.5105168 0.8696959 -0.32829484 0 15 0
1.5489558 0.89182752 -0.29375342 0 16 0
1.5610476 0.89878953 -0.25314549 0 17 0
1.6052293 0.9242276 -0.21648259 0 18 0
1.6382167 0.9432205 -0.17644581 0 19 0
1.6652818 0.95880342 -0.13433652 0 20 0
1.7060933 0.98230112 -0.091650851 0 21 0
1.7340264 0.99838394 -0.046521917 0 22 0
1.7808722 1.0253559 5.8665795e-05 0 23 0
1.8187164 1.047145 0.048913941 0 24 0
1.8598912 1.0708519 0.10003563 0 25 0
1.9145821 1.1023408 0.15457407 0 26 0
1.9643518 1.1309962 0.21170308 0 27 0
2.0115087 1.1581472 0.27140814 0 28 0
2.0520911 1.181513 0.33291286 0 29 0
2.1195374 1.2203459 0.40210539 0 30 0
2.1623523 1.244997 0.47011191 0 31 0
0.90697086 0.53962702 -0.62588149 0 0 0
0.95599741 0.56879669 -0.6251868 0 1 0
1.0134236 0.60296398 -0.6270858 0 2 0
1.0742123 0.6391319 -0.62783056 0 3 0
1.137102 0.67654979 -0.62646037 0 4 0
1.1868027 0.70612067 -0.61491656 0 5 0
1.2335435 0.73393029 -0.59950614 0 6 0
1.2630258 0.75147158 -0.57404071 0 7 0
1.2985728 0.77262121 -0.55002016 0 8 0
1.3205812 0.78571576 -0.51917112 0 9 0
1.3615892 0.81011462 -0.49452105 0 10 0
1.3766111 0.81905222 -0.45934993 0 11 0
1.4217025 0.84588063 -0.43299484 0 12 0
1.4221842 0.84616727 -0.39222792 0 13 0
1.4677664 0.87328756 -0.36303756 0 14 0
1.4970732 0.89072448 -0.32811034 0 15 0
1.5169119 0.90252805 -0.29009661 0 16 0
1.5521795 0.92351145 -0.25382501 0 17 0
1.5817313 0.9410941 -0.21510823 0 18 0
1.6108018 0.95839041 -0.17495264 0 19 0
1.643821 0.97803605 -0.13372089 0 20 0
1.66239 0.98908418 -0.090054415 0 21 0
1.7142826 1.0199592 -0.046379145 0 22 0
1.7546672 1.043987 5.8288831e-05 0 23 0
1.787064 1.0632623 0.048467003 0 24 0
1.8453928 1.0979667 0.10009085 0 25 0
1.8877139 1.1231468 0.15368703 0 26 0
1.9268801 1.1464498 0.20941173 0 27 0
1.9804933 1.1783484 0.26947144 0 28 0
2.0387089 1.2129854 0.33352435 0 29 0
2.0818436 1.2386496 0.39827707 0 30 0
2.1420634 1.2744789 0.46961883 0 31 0
0.89767492 0.55164284 -0.62485135 0 0 0
0.94739908 0.58219957 -0.62494946 0 1 0
1.0002486 0.61467683 -0.62431353 0 2 0
1.0593916 0.65102166 -0.6245507 0 3 0
1.1235652 0.69045788 -0.62438333 0 4 0
1.1840957 0.72765535 -0.61884701 0 5 0
1.2205845 0.75007862 -0.59836459 0 6 0
1.249573 0.76789266 -0.57286322 0 7 0
1.2863218 0.79047573 -0.5495671 0 8 0
1.307565 0.80353022 -0.51852244 0 9 0
1.3424907 0.8249929 -0.49182299 0 10 0
1.3646204 0.83859217 -0.45930707 0 11 0
1.3889289 0.85353029 -0.42669043 0 12 0
1.4318463 0.87990409 -0.39832529 0 13 0
1.4499096 0.89100438 -0.3617382 0 14 0
1.4725668 0.90492779 -0.3255448 0 15 0
1.499827 0.92167985 -0.28932256 0 16 0
1.5187004 0.93327796 -0.25050905 0 17 0
1.5533004 0.95454055 -0.21307801 0 18 0
1.5816545 0.97196484 -0.17328018 0 19 0
1.6074471 0.98781502 -0.13189863 0 20 0
1.6635771 1.0223082 -0.09090209 0 21 0
1.6921238 1.0398508 -0.046177592 0 22 0
1.7176908 1.0555624 5.7556506e-05 0 23 0
1.777079 1.0920578 0.04861515 0 24 0
1.8109391 1.1128657 0.099075951 0 25 0
1.8547724 1.1398023 0.15231776 0 26 0
1.9102198 1.173876 0.20940569 0 27 0
1.9363538 1.189936 0.26575589 0 28 0
1.9998384 1.228949 0.33000925 0 29 0
2.0520685 1.2610456 0.39599335 0 30 0
2.0909317 1.284928 0.46239367 0 31 0
0.8944006 0.5674237 -0.62816125 0 0 0
0.94065851 0.59677058 -0.62607354 0 1 0
0.99237812 0.62958241 -0.62496173 0 2 0
1.0609018 0.67305499 -0.63105577 0 3 0
1.1128135 0.70598876 -0.62396014 0 4 0
1.1588897 0.73522031 -0.61111087 0 5 0
1.1929035 0.75679928 -0.59004444 0 6 0
1.225734 0.77762753 -0.56697899 0 7 0
1.2710831 0.8063978 -0.54793179 0 8 0
1.2987401 0.82394391 -0.51964641 0 9 0
1.3255514 0.84095347 -0.48997682 0 10 0
1.3459246 0.85387868 -0.45708126 0 11 0
1.375892 0.87289053 -0.42648 0 12 0
1.4119303 0.89575386 -0.39631104 0 13 0
1.4296763 0.90701222 -0.35989234 0 14 0
1.4645092 0.92911083 -0.32667002 0 15 0
1.4783721 0.93790573 -0.28774402 0 16 0
1.5091039 0.95740253 -0.2511608 0 17 0
1.5412928 0.97782373 -0.21332893 0 18 0
1.5549084 0.9864617 -0.17187926 0 19 0
1.5886413 1.0078624 -0.13152578 0 20 0
1.6370894 1.0385988 -0.090257809 0 21 0
1.6640937 1.0557308 -0.045820344 0 22 0
1.6951191 1.0754139 5.7310088e-05 0 23 0
1.742304 1.1053487 0.048091713 0 24 0
1.777624 1.1277565 0.098126374 0 25 0
1.8282919 1.159901 0.151491 0 26 0
1.8645171 1.182883 0.20623052 0 27 0
1.9174582 1.2164698 0.26552504 0 28 0
1.9739376 1.2523013 0.32865942 0 29 0
2.0257065 1.2851444 0.39441553 0 30 0
2.0815623 1.3205804 0.4644542 0 31 0
0.86994475 0.56953222 -0.61664748 0 0 0
0.92648327 0.60654658 -0.62235349 0 1 0
0.97866958 0.64071178 -0.62204033 0 2 0
1.0473739 0.68569082 -0.62878263 0 3 0
1.1064949 0.72439599 -0.62616688 0 4 0
1.1600158 0.75943482 -0.61737359 0 5 0
1.1838946 0.77506769 -0.59101522 0 6 0
1.212756 0.79396266 -0.56617463 0 7 0
1.2378864 0.81041485 -0.53856677 0 8 0
1.2785152 0.83701354 -0.51629484 0 9 0
1.3055736 0.85472804 -0.48706454 0 10 0
1.3354808 0.87430763 -0.45773754 0 11 0
1.3615502 0.89137465 -0.42594561 0 12 0
1.3895953 0.90973508 -0.39365652 0 13 0
1.4081184 0.92186165 -0.35775051 0 14 0
1.4495986 0.94901776 -0.32634062 0 15 0
1.4599929 0.95582265 -0.28680024 0 16 0
1.4816871 0.97002536 -0.24888311 0 17 0
1.5172116 0.99328244 -0.21194196 0 18 0
1.5375913 1.0066246 -0.17154016 0 19 0
1.5626901 1.0230561 -0.13057622 0 20 0
1.5967728 1.0453693 -0.088850878 0 21 0
1.6359627 1.071026 -0.045463219 0 22 0
1.6804656 1.100161 5.7341185e-05 0 23 0
1.7025636 1.1146281 0.047430303 0 24 0
1.7710288 1.1594504 0.0986683 0 25 0
1.8074286 1.1832806 0.15115018 0 26 0
1.8498554 1.2110565 0.20650499 0 27 0
1.8886063 1.2364258 0.26395339 0 28 0
1.9668739 1.2876656 0.33051819 0 29 0
1.9986933 1.3084972 0.39276236 0 30 0
2.043915 1.3381026 0.46028039 0 31 0
0.87293911 0.58951139 -0.62468708 0 0 0
0.92787695 0.62661195 -0.62925005 0 1 0
0.97691506 0.65972823 -0.62686288 0 2 0
1.0286897 0.69469255 -0.62347132 0 3 0
1.0973104 0.74103338 -0.62690753 0 4 0
1.1359097 0.76710021 -0.61032516 0 5 0
1.1664546 0.78772765 -0.58787739 0 6 0
1.2068151 0.8149839 -0.56878877 0 7 0
1.2268018 0.8284812 -0.53884822 0 8 0
1.2618709 0.85216403 -0.51444638 0 9 0
1.2905689 0.87154436 -0.48607099 0 10 0
1.291368 0.87208396 -0.44685045 0 11 0
1.3440491 0.90766048 -0.42449144 0 12 0
1.3567544 0.91624051 -0.38802853 0 13 0
1.3796556 0.93170619 -0.35387111 0 14 0
1.4151131 0.95565128 -0.32162353 0 15 0
1.4311521 0.96648264 -0.28382316 0 16 0
1.465317 0.98955488 -0.2484871 0 17 0
1.489009 1.0055546 -0.20999137 0 18 0
1.513674 1.0222112 -0.17048672 0 19 0
1.5479602 1.0453652 -0.1305823 0 20 0
1.571497 1.0612601 -0.088280633 0 21 0
1.6134964 1.0896231 -0.045267664 0 22 0
1.6496603 1.1140451 5.6828329e-05 0 23 0
1.6749183 1.1311023 0.047106355 0 24 0
1.7203985 1.161816 0.096764132 0 25 0
1.7803191 1.2022814 0.15030682 0 26 0
1.8321376 1.2372754 0.20648292 0 27 0
1.8663869 1.2604045 0.26334241 0 28 0
1.9243175 1.2995261 0.32645917 0 29 0
1.97082 1.33093 0.39098844 0 30 0
2.0236464 1.3666047 0.46007392 0 31 0
0.86339217 0.60123396 -0.62394965 0 0 0
0.91646177 0.63818961 -0.62763923 0 1 0
0.9688068 0.67464072 -0.627792 0 2 0
1.0275828 0.71557015 -0.62894374 0 3 0
1.0803267 0.75229901 -0.62329257 0 4 0
1.1153963 0.77672011 -0.60521472 0 5 0
1.1530041 0.80290878 -0.58683044 0 6 0
1.1838021 0.82435536 -0.56344587 0 7 0
1.2218521 0.85085201 -0.54196793 0 8 0
1.2462109 0.86781454 -0.5130735 0 9 0
1.2773837 0.88952214 -0.48585057 0 10 0
1.2908288 0.89888477 -0.45106974 0 11 0
1.3262513 0.92355168 -0.42300206 0 12 0
1.3374032 0.93131745 -0.38626704 0 13 0
1.3635162 0.94950157 -0.35318118 0 14 0
1.3861109 0.96523565 -0.31813943 0 15 0
1.4171491 0.98684943 -0.28381833 0 16 0
1.4524741 1.0114486 -0.2487388 0 17 0
1.4766693 1.0282972 -0.21030529 0 18 0
1.4992312 1.0440084 -0.17052563 0 19 0
