# .PCD v0.7 - Point Cloud Data file format
VERSION 0.7
FIELDS x y z intensity ring time
SIZE 4 4 4 4 2 4
TYPE F F F F U F
COUNT 1 1 1 1 1 1
WIDTH 1197
HEIGHT 1
VIEWPOINT 0 0 0 1 0 0 0
POINTS 1197
DATA ascii
0.064684421 -1.0620627 -0.6310212 0 0 0
0.066580243 -1.0931906 -0.61552256 0 1 0
0.072026901 -1.18262 -0.63005167 0 2 0
0.075976439 -1.247468 -0.62773556 0 3 0
0.080189697 -1.3166461 -0.62453711 0 4 0
0.085345842 -1.4013056 -0.62512302 0 5 0
0.091953687 -1.5098008 -0.63176244 0 6 0
0.096771426 -1.5889039 -0.62176043 0 7 0
0.10483511 -1.7213026 -0.62771791 0 8 0
0.11316042 -1.8579973 -0.62890559 0 9 0
0.12168904 -1.9980298 -0.62479222 0 10 0
0.13321869 -2.1873367 -0.62840992 0 11 0
0.14578034 -2.3935883 -0.62765133 0 12 0
0.16107637 -2.6447358 -0.62800044 0 13 0
0.17927161 -2.9434862 -0.62683266 0 14 0
0.20853838 -3.4240215 -0.6461128 0 15 0
0.27231878 -4.4712415 -0.73621619 0 16 0
0.29760727 -4.8864565 -0.687989 0 17 0
0.32570791 -5.3478446 -0.62617838 0 18 0
0.49376482 -8.1071949 -0.75813055 0 19 0
0.57185006 -9.3892889 -0.65761608 0 20 0
0.07911431 -1.0508837 -0.62498796 0 0 0
0.083288759 -1.1063333 -0.62352991 0 1 0
0.087445542 -1.1615483 -0.61942887 0 2 0
0.094020344 -1.2488821 -0.62905991 0 3 0
0.098300621 -1.3057374 -0.61996657 0 4 0
0.10517298 -1.3970236 -0.62382048 0 5 0
0.11270645 -1.4970915 -0.62705511 0 6 0
0.12088106 -1.6056757 -0.62893611 0 7 0
0.12909019 -1.7147186 -0.62592655 0 8 0
0.13932873 -1.8507181 -0.62705255 0 9 0
0.14991191 -1.9912955 -0.62329352 0 10 0
0.16366848 -2.1740255 -0.62519467 0 11 0
0.18019329 -2.3935263 -0.62824702 0 12 0
0.19740674 -2.6221743 -0.62325019 0 13 0
0.22110988 -2.9370258 -0.62606668 0 14 0
0.25309265 -3.3618562 -0.63500077 0 15 0
0.32861504 -4.3650279 -0.71942836 0 16 0
0.36175194 -4.8051887 -0.67720652 0 17 0
0.40143272 -5.3322725 -0.62496388 0 18 0
0.61132044 -8.1202335 -0.76009017 0 19 0
0.70651615 -9.3847284 -0.65793753 0 20 0
0.093420185 -1.0415466 -0.62016672 0 0 0
0.099341802 -1.107567 -0.62496257 0 1 0
0.10563906 -1.1777754 -0.62882441 0 2 0
0.11122993 -1.2401084 -0.62537849 0 3 0
0.11815616 -1.3173292 -0.62620926 0 4 0
0.12669663 -1.4125475 -0.63149756 0 5 0
0.13387427 -1.4925714 -0.62590033 0 6 0
0.14486903 -1.6151525 -0.63339543 0 7 0
0.15252523 -1.7005118 -0.62147391 0 8 0
0.16562007 -1.8465068 -0.62636471 0 9 0
0.17926474 -1.9986321 -0.62632895 0 10 0
0.19378722 -2.1605439 -0.62205166 0 11 0
0.21330294 -2.3781257 -0.62494206 0 12 0
0.23488529 -2.6187484 -0.62317121 0 13 0
0.26477695 -2.9520121 -0.63000458 0 14 0
0.29925898 -3.3364542 -0.63094717 0 15 0
0.38231099 -4.2624054 -0.70334435 0 16 0
0.425255 -4.7411904 -0.66897643 0 17 0
0.47922748 -5.3429327 -0.62695295 0 18 0
0.72875041 -8.124877 -0.76142323 0 19 0
0.83920956 -9.3563919 -0.65672582 0 20 0
0.10973615 -1.053728 -0.62829071 0 0 0
0.11530831 -1.107234 -0.62564188 0 1 0
0.12327782 -1.1837602 -0.63289696 0 2 0
0.12993103 -1.2476467 -0.63005334 0 3 0
0.13656351 -1.3113344 -0.62422472 0 4 0
0.14434591 -1.3860639 -0.62051785 0 5 0
0.15643589 -1.5021565 -0.63079423 0 6 0
0.16571809 -1.5912876 -0.62490284 0 7 0
0.17870046 -1.7159493 -0.62798619 0 8 0
0.19096415 -1.8337097 -0.62288713 0 9 0
0.2086975 -2.0039921 -0.62888038 0 10 0
0.22701511 -2.1798849 -0.62849134 0 11 0
0.24841455 -2.3853703 -0.62771595 0 12 0
0.27186376 -2.6105385 -0.62207979 0 13 0
0.30504277 -2.9291358 -0.62599015 0 14 0
0.34415352 -3.304692 -0.62580818 0 15 0
0.42928788 -4.1221843 -0.68115044 0 16 0
0.48374075 -4.645061 -0.65632248 0 17 0
0.55443704 -5.3239136 -0.62558842 0 18 0
0.84505808 -8.1145668 -0.76151258 0 19 0
0.96742654 -9.2895947 -0.65294236 0 20 0
0.12317228 -1.0382793 -0.62006706 0 0 0
0.13159555 -1.1092831 -0.62779981 0 1 0
0.13884296 -1.170375 -0.62673891 0 2 0
0.14536594 -1.2253604 -0.61978608 0 3 0
0.1560339 -1.3152859 -0.62710464 0 4 0
0.16644385 -1.4030365 -0.62911826 0 5 0
0.17782725 -1.4989927 -0.63046992 0 6 0
0.18703087 -1.5765743 -0.62011266 0 7 0
0.20327926 -1.71354 -0.62810493 0 8 0
0.21865025 -1.8431096 -0.62707895 0 9 0
0.23739226 -2.0010951 -0.62897313 0 10 0
0.25675675 -2.1643279 -0.62500161 0 11 0
0.28104529 -2.3690679 -0.62442052 0 12 0
0.31274107 -2.6362472 -0.62920827 0 13 0
0.34561017 -2.9133167 -0.62360269 0 14 0
0.39095649 -3.295563 -0.6250751 0 15 0
0.47871754 -4.0353436 -0.66786468 0 16 0
0.54556668 -4.5988479 -0.65082943 0 17 0
0.63224977 -5.3295417 -0.62724882 0 18 0
0.95701975 -8.0671864 -0.75827402 0 19 0
1.094898 -9.2294292 -0.6497485 0 20 0
0.13891366 -1.0431243 -0.62408412 0 0 0
0.14713962 -1.1048944 -0.62644374 0 1 0
0.15466501 -1.1614037 -0.62305647 0 2 0
0.16378798 -1.2299094 -0.623209 0 3 0
0.17526056 -1.3160589 -0.62860489 0 4 0
0.18466592 -1.3866853 -0.62290782 0 5 0
0.19847594 -1.4903867 -0.62798083 0 6 0
0.21220708 -1.5934961 -0.62789887 0 7 0
0.22877011 -1.7178704 -0.63082796 0 8 0
0.24414399 -1.8333153 -0.62487161 0 9 0
0.26398543 -1.9823078 -0.62419176 0 10 0
0.28752467 -2.1590676 -0.62460703 0 11 0
0.31666404 -2.3778796 -0.62787348 0 12 0
0.35014239 -2.6292739 -0.62867576 0 13 0
0.38858446 -2.9179413 -0.62571913 0 14 0
0.43883249 -3.2952616 -0.62614518 0 15 0
0.52181679 -3.9184039 -0.64968032 0 16 0
0.60338396 -4.5309043 -0.64237052 0 17 0
0.70725197 -5.3108654 -0.62617809 0 18 0
1.0641066 -7.9905419 -0.75242442 0 19 0
1.214116 -9.1169863 -0.64299011 0 20 0
0.15553559 -1.0525812 -0.63100928 0 0 0
0.16386552 -1.1089537 -0.6300106 0 1 0
0.17000441 -1.1504984 -0.6184482 0 2 0
0.18026255 -1.21992 -0.6193912 0 3 0
0.19440484 -1.3156275 -0.62966341 0 4 0
0.2072482 -1.4025443 -0.63129967 0 5 0
0.21858212 -1.4792463 -0.62454098 0 6 0
0.23397264 -1.583401 -0.62517661 0 7 0
0.25202537 -1.7055721 -0.62757224 0 8 0
0.26862368 -1.8179005 -0.62086457 0 9 0
0.29358986 -1.9868584 -0.62688363 0 10 0
0.31759083 -2.1492841 -0.62302798 0 11 0
0.34853896 -2.3587241 -0.62406886 0 12 0
0.38587058 -2.6113646 -0.62565005 0 13 0
0.43176046 -2.9219224 -0.62783372 0 14 0
0.48646572 -3.2921383 -0.62681055 0 15 0
0.56739801 -3.8398445 -0.63793623 0 16 0
0.66285247 -4.4858289 -0.63725978 0 17 0
0.78413785 -5.3066235 -0.62693703 0 18 0
1.1638563 -7.8763528 -0.74316436 0 19 0
1.3296613 -8.9984322 -0.63590598 0 20 0
0.16824545 -1.0358483 -0.62235796 0 0 0
0.1779376 -1.0955205 -0.62376207 0 1 0
0.18843368 -1.1601425 -0.62501818 0 2 0
0.20038201 -1.2337056 -0.62778252 0 3 0
0.21147698 -1.3020148 -0.62453306 0 4 0
0.22708592 -1.3981154 -0.63070464 0 5 0
0.23949529 -1.474517 -0.62392771 0 6 0
0.2560432 -1.5763986 -0.62379497 0 7 0
0.27536699 -1.6953708 -0.62520486 0 8 0
0.2958588 -1.8215342 -0.62348795 0 9 0
0.32121217 -1.9776289 -0.62535816 0 10 0
0.35117331 -2.1620927 -0.62813365 0 11 0
0.38321257 -2.3593512 -0.62562186 0 12 0
0.42333555 -2.6063788 -0.62584323 0 13 0
0.47375339 -2.9167898 -0.62812358 0 14 0
0.53200054 -3.275404 -0.62501019 0 15 0
0.61649185 -3.7955978 -0.6319865 0 16 0
0.71937549 -4.429028 -0.63058877 0 17 0
0.85799611 -5.2824831 -0.62547189 0 18 0
1.2597991 -7.7562914 -0.73346239 0 19 0
1.4472508 -8.910388 -0.63108337 0 20 0
0.18256895 -1.0306003 -0.62071139 0 0 0
0.19476743 -1.0994606 -0.62752843 0 1 0
0.20696245 -1.1683013 -0.63094497 0 2 0
0.21615665 -1.2202026 -0.62242198 0 3 0
0.22944573 -1.2952192 -0.62278497 0 4 0
0.24651426 -1.391571 -0.62927967 0 5 0
0.26118535 -1.4743892 -0.62539148 0 6 0
0.28038797 -1.5827878 -0.62784702 0 7 0
0.29849827 -1.6850203 -0.62289965 0 8 0
0.32282138 -1.8223242 -0.62527591 0 9 0
0.34964964 -1.9737694 -0.62565625 0 10 0
0.38098928 -2.1506815 -0.62633854 0 11 0
0.41624027 -2.349673 -0.62457144 0 12 0
0.46027112 -2.5982268 -0.62540358 0 13 0
0.51323915 -2.8972309 -0.62542951 0 14 0
0.58007568 -3.2745223 -0.62636214 0 15 0
0.66551429 -3.7568228 -0.62705213 0 16 0
0.77880138 -4.3963275 -0.62745583 0 17 0
0.93527985 -5.2796474 -0.62665695 0 18 0
1.3590721 -7.6719513 -0.72725195 0 19 0
1.5671362 -8.8464708 -0.62808073 0 20 0
0.19866467 -1.0349903 -0.62500405 0 0 0
0.20896327 -1.0886433 -0.62299764 0 1 0
0.22413816 -1.1677004 -0.63228828 0 2 0
0.23507892 -1.2246989 -0.62636775 0 3 0
0.2491181 -1.2978394 -0.62569529 0 4 0
0.26394701 -1.3750941 -0.62347323 0 5 0
0.28400284 -1.4795796 -0.62925285 0 6 0
0.30497295 -1.5888283 -0.63190997 0 7 0
0.32509369 -1.693652 -0.6277464 0 8 0
0.34979674 -1.8223484 -0.62693793 0 9 0
0.37804523 -1.9695156 -0.62595898 0 10 0
0.41003725 -2.1361854 -0.62376225 0 11 0
0.45173848 -2.3534377 -0.62722659 0 12 0
0.49650741 -2.5866721 -0.62426901 0 13 0
0.55625778 -2.8979559 -0.62724054 0 14 0
0.62503105 -3.2562463 -0.62451357 0 15 0
0.71523708 -3.7261956 -0.62358505 0 16 0
0.8405419 -4.3790007 -0.62663579 0 17 0
1.010008 -5.2618742 -0.62619925 0 18 0
1.4567143 -7.5890956 -0.72130036 0 19 0
1.6917216 -8.8134212 -0.62738919 0 20 0
0.21102907 -1.0203018 -0.61789477 0 0 0
0.22608241 -1.093083 -0.62732601 0 1 0
0.23666427 -1.144245 -0.62135822 0 2 0
0.25522467 -1.2339826 -0.63291943 0 3 0
0.26897016 -1.3004403 -0.62874091 0 4 0
0.28763196 -1.3906682 -0.6323365 0 5 0
0.30295473 -1.464752 -0.62472707 0 6 0
0.32269216 -1.5601802 -0.62228924 0 7 0
0.34779993 -1.6815734 -0.6250506 0 8 0
0.37372774 -1.8069315 -0.62341052 0 9 0
0.40066501 -1.9371701 -0.61743826 0 10 0
0.44211444 -2.1375735 -0.62595129 0 11 0
0.48348895 -2.3376145 -0.62478989 0 12 0
0.5361836 -2.5923872 -0.62743622 0 13 0
0.59292752 -2.8667378 -0.62225682 0 14 0
0.67483991 -3.2627749 -0.62755394 0 15 0
0.77105111 -3.7279451 -0.62566066 0 16 0
0.90088737 -4.355689 -0.62508112 0 17 0
1.0850765 -5.2462225 -0.62612075 0 18 0
1.5569726 -7.5277872 -0.71751797 0 19 0
1.8146757 -8.7737532 -0.62635016 0 20 0
0.2286645 -1.0309484 -0.62626028 0 0 0
0.24180555 -1.0901957 -0.62759101 0 1 0
0.25339815 -1.1424615 -0.62229562 0 2 0
0.27115828 -1.2225343 -0.62897384 0 3 0
0.28268507 -1.2745036 -0.61809385 0 4 0
0.3064273 -1.381547 -0.63011885 0 5 0
0.32653686 -1.4722121 -0.62983781 0 6 0
0.34566271 -1.5584424 -0.62350559 0 7 0
0.37217882 -1.6779917 -0.62563539 0 8 0
0.40273625 -1.8157619 -0.62838161 0 9 0
0.43531686 -1.9626538 -0.62748235 0 10 0
0.47342917 -2.1344855 -0.62696713 0 11 0
0.51604134 -2.3266051 -0.6237576 0 12 0
0.57043672 -2.5718501 -0.62437779 0 13 0
0.64053088 -2.8878739 -0.62877029 0 14 0
0.72024995 -3.2472925 -0.62649482 0 15 0
0.82446682 -3.7171609 -0.62576723 0 16 0
0.96560627 -4.353497 -0.62668586 0 17 0
1.1617126 -5.2376552 -0.62701857 0 18 0
1.6557534 -7.4650688 -0.71372581 0 19 0
1.9407564 -8.7500229 -0.62657511 0 20 0
0.24275891 -1.0248805 -0.62462109 0 0 0
0.25783408 -1.0885248 -0.62868923 0 1 0
0.26895252 -1.1354648 -0.62051779 0 2 0
0.28579456 -1.2065685 -0.62280047 0 3 0
0.30430979 -1.2847362 -0.62510467 0 4 0
0.32197928 -1.3593333 -0.62202555 0 5 0
0.34403706 -1.4524568 -0.623429 0 6 0
0.37450677 -1.581094 -0.63464785 0 7 0
0.3956528 -1.6703684 -0.6248405 0 8 0
0.4287242 -1.8099895 -0.62844324 0 9 0
0.46264505 -1.9531966 -0.62651181 0 10 0
0.50413734 -2.1283689 -0.62722576 0 11 0
0.55173099 -2.3292999 -0.62653315 0 12 0
0.61203837 -2.5839059 -0.62936699 0 13 0
0.67866892 -2.8652067 -0.62588596 0 14 0
0.76629031 -3.2351272 -0.62619966 0 15 0
0.88036275 -3.7167187 -0.6277498 0 16 0
1.0273519 -4.3372779 -0.62640369 0 17 0
1.2367941 -5.2215018 -0.62713981 0 18 0
1.7562407 -7.4145036 -0.71122181 0 19 0
2.06429 -8.7150278 -0.62612081 0 20 0
0.25911683 -1.0281045 -0.62878197 0 0 0
0.26957208 -1.0695882 -0.61991721 0 1 0
0.28728712 -1.1398765 -0.62511194 0 2 0
0.3052353 -1.2110901 -0.62732524 0 3 0
0.32448289 -1.2874591 -0.62862504 0 4 0
0.34243977 -1.3587072 -0.62391806 0 5 0
0.36374503 -1.4432406 -0.62164426 0 6 0
0.39151549 -1.5534261 -0.6257273 0 7 0
0.42218688 -1.6751219 -0.62881476 0 8 0
0.45303747 -1.7975286 -0.62630403 0 9 0
0.48878956 -1.939383 -0.62426114 0 10 0
0.53285444 -2.1142206 -0.62523991 0 11 0
0.58264267 -2.3117664 -0.62399626 0 12 0
0.64393973 -2.5549762 -0.62450159 0 13 0
0.72152513 -2.8628142 -0.62755495 0 14 0
0.8129462 -3.2255478 -0.62653363 0 15 0
0.93258047 -3.7002237 -0.62715411 0 16 0
1.0886556 -4.3194871 -0.62602061 0 17 0
1.3090118 -5.1938004 -0.62599891 0 18 0
1.8497458 -7.3392844 -0.70647389 0 19 0
2.1903152 -8.6905708 -0.62655193 0 20 0
0.27549022 -1.030597 -0.63265318 0 0 0
0.28677496 -1.0728127 -0.62410122 0 1 0
0.30107886 -1.126323 -0.6199789 0 2 0
0.32232308 -1.2057967 -0.6269089 0 3 0
0.33928943 -1.2692671 -0.62204993 0 4 0
0.36162183 -1.3528115 -0.62352371 0 5 0
0.38768727 -1.4503212 -0.62701994 0 6 0
0.41329235 -1.5461087 -0.62509865 0 7 0
0.44296998 -1.6571314 -0.62437755 0 8 0
0.48152998 -1.8013828 -0.6299839 0 9 0
0.52027518 -1.9463269 -0.62882888 0 10 0
0.56240582 -2.1039357 -0.62451506 0 11 0
0.61683547 -2.3075547 -0.62517852 0 12 0
0.67836988 -2.5377524 -0.62260115 0 13 0
0.76289988 -2.8539753 -0.62794679 0 14 0
0.85759681 -3.2082324 -0.62549055 0 15 0
0.98389179 -3.6806965 -0.62616724 0 16 0
1.1553295 -4.3220377 -0.62872255 0 17 0
1.3848122 -5.1805224 -0.62672341 0 18 0
1.9397223 -7.2564173 -0.70109791 0 19 0
2.3209836 -8.6826982 -0.62831515 0 20 0
0.28992388 -1.0255297 -0.63202524 0 0 0
0.30457363 -1.0773493 -0.62921202 0 1 0
0.32219675 -1.1396866 -0.62980884 0 2 0
0.33627772 -1.1894944 -0.62087202 0 3 0
0.35957915 -1.2719171 -0.62580693 0 4 0
0.38444504 -1.3598737 -0.62925053 0 5 0
0.40671331 -1.4386418 -0.62442344 0 6 0
0.43880805 -1.5521686 -0.63002348 0 7 0
0.46584344 -1.6477991 -0.62330979 0 8 0
0.50339937 -1.7806435 -0.62518674 0 9 0
0.54503667 -1.9279244 -0.62533981 0 10 0
0.59790134 -2.1149194 -0.63025111 0 11 0
0.6491527 -2.2962077 -0.62455767 0 12 0
0.71958596 -2.5453467 -0.62692702 0 13 0
0.80491227 -2.8471663 -0.62891918 0 14 0
0.90256453 -3.1925855 -0.62489462 0 15 0
1.0344375 -3.6590517 -0.62493986 0 16 0
1.2095134 -4.278337 -0.62481987 0 17 0
1.4557483 -5.1493282 -0.62540638 0 18 0
2.0190275 -7.1417809 -0.69274324 0 19 0
2.4587047 -8.6970243 -0.63183373 0 20 0
0.29823473 -1.0000271 -0.61887556 0 0 0
0.31727883 -1.0638849 -0.62393665 0 1 0
0.33389524 -1.1196022 -0.62128735 0 2 0
0.35210246 -1.1806538 -0.61882478 0 3 0
0.37840801 -1.2688603 -0.62690371 0 4 0
0.40688768 -1.364357 -0.63395512 0 5 0
0.42780393 -1.4344925 -0.62521619 0 6 0
0.45493284 -1.5254598 -0.6217618 0 7 0
0.48947179 -1.6412743 -0.62342793 0 8 0
0.53027338 -1.7780882 -0.62689024 0 9 0
0.56770283 -1.903595 -0.62002045 0 10 0
0.62151158 -2.084024 -0.6236313 0 11 0
0.68346477 -2.2917626 -0.62594539 0 12 0
0.75957513 -2.5469723 -0.62994075 0 13 0
0.8408168 -2.8193882 -0.6253776 0 14 0
0.95215321 -3.1927164 -0.62752354 0 15 0
1.0881875 -3.6488602 -0.6257953 0 16 0
1.2715179 -4.2635951 -0.62526083 0 17 0
1.5312653 -5.1345682 -0.62621152 0 18 0
2.09286 -7.0176816 -0.68354148 0 19 0
2.6084778 -8.7466278 -0.63808453 0 20 0
0.3161186 -1.0071321 -0.62600863 0 0 0
0.33442196 -1.0654453 -0.62759483 0 1 0
0.35404852 -1.1279742 -0.62868083 0 2 0
0.37385973 -1.1910914 -0.62703604 0 3 0
0.3974497 -1.2662473 -0.62835902 0 4 0
0.42132637 -1.3423167 -0.62645197 0 5 0
0.44608068 -1.4211823 -0.62213415 0 6 0
0.47809607 -1.5231811 -0.62355834 0 7 0
0.51294917 -1.6342207 -0.6234737 0 8 0
0.55545056 -1.7696272 -0.62664604 0 9 0
0.60154116 -1.9164686 -0.62695378 0 10 0
0.65550274 -2.0883865 -0.62768012 0 11 0
0.71333486 -2.2726357 -0.62344617 0 12 0
0.79295337 -2.5262949 -0.62756944 0 13 0
0.88325149 -2.8139784 -0.62691766 0 14 0
0.99505168 -3.170166 -0.6258266 0 15 0
1.1400173 -3.6320164 -0.62564099 0 16 0
1.3362195 -4.2571034 -0.62704939 0 17 0
1.6043448 -5.1113319 -0.62611413 0 18 0
2.162375 -6.8891773 -0.67397046 0 19 0
2.7555742 -8.7790689 -0.64326268 0 20 0
0.32844424 -0.99626797 -0.62211418 0 0 0
0.35060334 -1.0634831 -0.62933058 0 1 0
0.36916116 -1.1197745 -0.62699151 0 2 0
0.3876166 -1.1757551 -0.62181956 0 3 0
0.41564086 -1.260761 -0.62852436 0 4 0
0.4430694 -1.3439598 -0.63011396 0 5 0
0.46866438 -1.421597 -0.62518823 0 6 0
0.50049371 -1.5181446 -0.62436527 0 7 0
0.54039037 -1.6391629 -0.62824577 0 8 0
0.57887745 -1.7559055 -0.62465715 0 9 0
0.62752384 -1.9034644 -0.62557387 0 10 0
0.68491596 -2.0775516 -0.62730587 0 11 0
0.75152922 -2.2796092 -0.62824577 0 12 0
0.82614738 -2.5059481 -0.62538844 0 13 0
0.92218208 -2.7972496 -0.62606722 0 14 0
1.0422395 -3.1614192 -0.6269806 0 15 0
1.1922356 -3.6164012 -0.6258266 0 16 0
1.3912886 -4.2201877 -0.6244812 0 17 0
1.6754311 -5.0820756 -0.62540388 0 18 0
2.2393095 -6.7924848 -0.66757828 0 19 0
2.8924854 -8.7737589 -0.645841 0 20 0
0.3452369 -0.99889463 -0.62677592 0 0 0
0.3585729 -1.0374805 -0.61691713 0 1 0
0.38368738 -1.1101457 -0.62461114 0 2 0
0.40615511 -1.1751529 -0.6245116 0 3 0
0.43583342 -1.2610229 -0.63170022 0 4 0
0.45934239 -1.3290429 -0.62613863 0 5 0
0.48824582 -1.4126709 -0.62427217 0 6 0
0.52443159 -1.5173693 -0.62706935 0 7 0
0.55808157 -1.614731 -0.62187958 0 8 0
0.60663599 -1.7552164 -0.62743664 0 9 0
0.65576726 -1.8973707 -0.6265918 0 10 0
0.7156775 -2.0707126 -0.62826961 0 11 0
0.77743489 -2.2493989 -0.62292296 0 12 0
0.86546689 -2.5041072 -0.62795627 0 13 0
0.95894301 -2.7745674 -0.62399876 0 14 0
1.0859619 -3.1420786 -0.62616354 0 15 0
1.2426256 -3.5953631 -0.62519985 0 16 0
1.4532037 -4.2046413 -0.62519467 0 17 0
1.7528979 -5.0717645 -0.62715834 0 18 0
2.3087215 -6.6799622 -0.65969962 0 19 0
3.2926278 -9.5267572 -0.70466661 0 20 0
0.36090305 -0.99773645 -0.62922609 0 0 0
0.38132167 -1.0541848 -0.63003105 0 1 0
0.39928657 -1.1038498 -0.62422049 0 2 0
0.42589524 -1.177411 -0.62888682 0 3 0
0.44705316 -1.2359031 -0.62225831 0 4 0
0.47631624 -1.3168026 -0.62352008 0 5 0
0.5132789 -1.4189879 -0.63024575 0 6 0
0.54030275 -1.4936968 -0.62041891 0 7 0
0.57989466 -1.6031508 -0.62055284 0 8 0
0.62950993 -1.7403148 -0.62526673 0 9 0
0.68104172 -1.8827775 -0.6249277 0 10 0
0.73764825 -2.0392694 -0.62186927 0 11 0
0.80931032 -2.2373831 -0.62273955 0 12 0
0.89726168 -2.4805295 -0.62520021 0 13 0
1.0015397 -2.7688119 -0.62586427 0 14 0
1.1318541 -3.1290729 -0.62673604 0 15 0
1.2987452 -3.5904524 -0.62751424 0 16 0
1.5153228 -4.1891937 -0.62605858 0 17 0
1.8208034 -5.0337119 -0.62561154 0 18 0
2.3867459 -6.5982909 -0.65494066 0 19 0
3.5203333 -9.7321558 -0.72351223 0 20 0
0.37454325 -0.99087518 -0.62821561 0 0 0
0.39495099 -1.044865 -0.62777531 0 1 0
0.41832161 -1.1066934 -0.62915003 0 2 0
0.43769059 -1.157935 -0.62176675 0 3 0
0.46534508 -1.2310965 -0.623128 0 4 0
0.49469459 -1.3087423 -0.62299246 0 5 0
0.52976102 -1.4015125 -0.62578785 0 6 0
0.56098491 -1.484117 -0.61971158 0 7 0
0.60837209 -1.6094825 -0.62631023 0 8 0
0.65818071 -1.741254 -0.62892449 0 9 0
0.71026105 -1.8790355 -0.6269958 0 10 0
0.76811075 -2.0320802 -0.62296581 0 11 0
0.85117292 -2.2518258 -0.63008595 0 12 0
0.93341607 -2.4694047 -0.62569964 0 13 0
1.0398666 -2.7510252 -0.62514418 0 14 0
1.1791338 -3.1194646 -0.62812769 0 15 0
1.3487659 -3.5682359 -0.6269412 0 16 0
1.5741889 -4.1646051 -0.62568724 0 17 0
1.8902441 -5.0007472 -0.6248132 0 18 0
2.4425247 -6.4618359 -0.64480042 0 19 0
3.7144845 -9.8268766 -0.73443145 0 20 0
0.38333091 -0.97183603 -0.61955994 0 0 0
0.40811291 -1.0346644 -0.62509227 0 1 0
0.43565366 -1.1044868 -0.63137591 0 2 0
0.45117298 -1.1438321 -0.61759835 0 3 0
0.47881478 -1.2139107 -0.61783493 0 4 0
0.51689708 -1.3104584 -0.627267 0 5 0
0.54495054 -1.3815807 -0.62030739 0 6 0
0.59106195 -1.4984843 -0.62917894 0 7 0
0.63043261 -1.5982983 -0.62540543 0 8 0
0.68224937 -1.7296662 -0.6282019 0 9 0
0.73269659 -1.8575622 -0.62326622 0 10 0
0.81141067 -2.0571213 -0.63413805 0 11 0
0.87986821 -2.2306776 -0.62762809 0 12 0
0.9662872 -2.4497705 -0.62416524 0 13 0
1.0839484 -2.74807 -0.62793392 0 14 0
1.219367 -3.0913887 -0.62592465 0 15 0
1.4007732 -3.5512969 -0.62742358 0 16 0
1.6367364 -4.1495204 -0.62687641 0 17 0
1.9679986 -4.9893498 -0.62684453 0 18 0
2.5071015 -6.3561058 -0.63776553 0 19 0
3.8860538 -9.8520813 -0.74039632 0 20 0
0.39754671 -0.96709239 -0.6200999 0 0 0
0.42393014 -1.0312741 -0.62664574 0 1 0
0.44440213 -1.0810752 -0.62156534 0 2 0
0.47684202 -1.1599902 -0.62994343 0 3 0
0.50041616 -1.2173378 -0.62316096 0 4 0
0.53203577 -1.2942573 -0.62309343 0 5 0
0.57140911 -1.3900388 -0.62771279 0 6 0
0.61322397 -1.4917598 -0.62997639 0 7 0
0.65544319 -1.5944645 -0.62751204 0 8 0
0.69753802 -1.6968665 -0.61985195 0 9 0
0.76095605 -1.8511405 -0.6247021 0 10 0
0.82674932 -2.0111926 -0.62356389 0 11 0
0.91039312 -2.2146688 -0.62672597 0 12 0
1.0027068 -2.4392357 -0.62507385 0 13 0
1.1182907 -2.7204106 -0.62520725 0 14 0
1.2690452 -3.0871439 -0.62867862 0 15 0
1.4493494 -3.5257611 -0.626513 0 16 0
1.6955634 -4.1247139 -0.62673104 0 17 0
2.0393631 -4.9610586 -0.62689322 0 18 0
2.5647929 -6.2392459 -0.62965894 0 19 0
4.0567169 -9.868577 -0.74592328 0 20 0
0.42008865 -0.98173255 -0.63327783 0 0 0
0.43122792 -1.0077646 -0.61604786 0 1 0
0.46513414 -1.0870023 -0.62873656 0 2 0
0.49338114 -1.1530145 -0.62992579 0 3 0
0.52487081 -1.2266048 -0.63168585 0 4 0
0.55122966 -1.2882046 -0.62391406 0 5 0
0.59038645 -1.3797125 -0.62680149 0 6 0
0.63065994 -1.4738303 -0.62615269 0 7 0
0.67747867 -1.583244 -0.62684828 0 8 0
0.73223543 -1.7112087 -0.62885523 0 9 0
0.78806627 -1.8416834 -0.6252532 0 10 0
0.85879332 -2.0069702 -0.62600178 0 11 0
0.94068635 -2.1983511 -0.62585449 0 12 0
1.0327646 -2.4135346 -0.62221217 0 13 0
1.1503317 -2.6882851 -0.62154454 0 14 0
1.3114771 -3.0648761 -0.62790233 0 15 0
1.4970442 -3.4985402 -0.6254195 0 16 0
1.7608413 -4.1150246 -0.62902397 0 17 0
2.1172519 -4.9479437 -0.62900102 0 18 0
2.6536107 -6.2013955 -0.6296078 0 19 0
4.2233758 -9.8698816 -0.75051433 0 20 0
0.42820048 -0.96236926 -0.62467688 0 0 0
0.45299318 -1.0180901 -0.62625939 0 1 0
0.47630256 -1.0704775 -0.6230579 0 2 0
0.50629586 -1.1378865 -0.62555599 0 3 0
0.53435779 -1.2009549 -0.62235165 0 4 0
0.5693379 -1.2795718 -0.62361598 0 5 0
0.60771853 -1.3658313 -0.62438309 0 6 0
0.65294921 -1.4674861 -0.62736374 0 7 0
0.69894344 -1.5708569 -0.62584078 0 8 0
0.75210589 -1.6903381 -0.62507755 0 9 0
0.81641477 -1.8348706 -0.62684339 0 10 0
0.88486177 -1.9887034 -0.62419075 0 11 0
0.97227192 -2.1851554 -0.62599558 0 12 0
1.0755725 -2.4173207 -0.62709284 0 13 0
1.1958717 -2.68769 -0.62530041 0 14 0
1.3540099 -3.0431013 -0.62734759 0 15 0
1.5474349 -3.4778192 -0.62561077 0 16 0
1.8292025 -4.1110845 -0.63235909 0 17 0
2.184293 -4.9091411 -0.62797844 0 18 0
4.2636523 -9.5824461 -0.97897071 0 19 0
4.4019661 -9.893302 -0.75700885 0 20 0
0.4440521 -0.96073347 -0.62767649 0 0 0
0.46143028 -0.99833226 -0.61810505 0 1 0
0.49526525 -1.0715362 -0.62773585 0 2 0
0.52804047 -1.1424475 -0.63215369 0 3 0
0.55852866 -1.2084105 -0.63029343 0 4 0
0.59118265 -1.2790593 -0.62742591 0 5 0
0.62628967 -1.3550154 -0.62347281 0 6 0
0.67264593 -1.45531 -0.62621015 0 7 0
0.72427702 -1.567017 -0.62837678 0 8 0
0.77945614 -1.6864004 -0.62768281 0 9 0
0.84190118 -1.821504 -0.6263296 0 10 0
0.91739666 -1.984843 -0.62703627 0 11 0
0.99957496 -2.1626406 -0.62358046 0 12 0
1.1080863 -2.3974116 -0.62597841 0 13 0
1.2347038 -2.6713562 -0.62554789 0 14 0
1.3934214 -3.0147512 -0.62555069 0 15 0
1.6035696 -3.4694195 -0.62816429 0 16 0
1.9124104 -4.1376152 -0.64058489 0 17 0
2.258678 -4.886786 -0.62918991 0 18 0
4.4194751 -9.561801 -0.98322344 0 19 0
4.5897541 -9.9302101 -0.76478142 0 20 0
0.45697123 -0.9526425 -0.62659955 0 0 0
0.47916582 -0.99891132 -0.62264621 0 1 0
0.50904584 -1.0612019 -0.62588608 0 2 0
0.53497356 -1.1152531 -0.62127954 0 3 0
0.57198328 -1.1924067 -0.62615222 0 4 0
0.60413545 -1.2594341 -0.62197715 0 5 0
0.65587908 -1.3673034 -0.63338149 0 6 0
0.69260091 -1.4438568 -0.62548363 0 7 0
0.74506265 -1.5532233 -0.62705767 0 8 0
0.80419064 -1.6764866 -0.62821287 0 9 0
0.87055355 -1.8148327 -0.6282559 0 10 0
0.94279289 -1.9654291 -0.62510228 0 11 0
1.0364522 -2.1606796 -0.62722838 0 12 0
1.1429777 -2.3827522 -0.62635827 0 13 0
1.2733271 -2.65449 -0.6258021 0 14 0
1.4407823 -3.0035818 -0.6274479 0 15 0
1.6541834 -3.4484563 -0.62859124 0 16 0
1.9808391 -4.1294317 -0.64364159 0 17 0
2.335752 -4.8693147 -0.63118035 0 18 0
4.602788 -9.5953779 -0.99334884 0 19 0
4.7499366 -9.9021358 -0.76777679 0 20 0
0.47165871 -0.94821632 -0.62806439 0 0 0
0.49865016 -1.0024796 -0.62925482 0 1 0
0.52694339 -1.0593598 -0.62918365 0 2 0
0.55517745 -1.1161213 -0.62612587 0 3 0
0.58830488 -1.1827202 -0.62542343 0 4 0
0.62492353 -1.2563378 -0.62480146 0 5 0
0.66552132 -1.3379551 -0.62413514 0 6 0
0.71401715 -1.4354504 -0.62620515 0 7 0
0.76883703 -1.5456595 -0.6283825 0 8 0
0.83350569 -1.6756686 -0.63231206 0 9 0
0.89844072 -1.8062131 -0.62965935 0 10 0
0.97046596 -1.9510117 -0.62487078 0 11 0
1.0623611 -2.1357565 -0.62434363 0 12 0
1.1834437 -2.3791792 -0.62980741 0 13 0
1.3159552 -2.6455784 -0.62807745 0 14 0
1.4806733 -2.9767256 -0.62620085 0 15 0
1.6957355 -3.4090836 -0.62577456 0 16 0
2.0680277 -4.1575351 -0.65256882 0 17 0
2.4223642 -4.8698883 -0.63568401 0 18 0
4.7816329 -9.6129303 -1.0021486 0 19 0
4.8971572 -9.8451786 -0.76871669 0 20 0
0.48282334 -0.93679386 -0.62501204 0 0 0
0.50985938 -0.9892503 -0.6254676 0 1 0
0.54702514 -1.061361 -0.63495743 0 2 0
0.57444316 -1.1145585 -0.62979722 0 3 0
0.60479635 -1.1734509 -0.62503552 0 4 0
0.64733779 -1.2559916 -0.62917286 0 5 0
0.69224215 -1.343117 -0.63110054 0 6 0
0.73624891 -1.4285007 -0.62770629 0 7 0
0.78562891 -1.5243099 -0.6242106 0 8 0
0.8395431 -1.6289164 -0.61914128 0 9 0
0.91750252 -1.7801764 -0.62509686 0 10 0
1.0024877 -1.9450682 -0.62749869 0 11 0
1.099075 -2.1324708 -0.62791765 0 12 0
1.2162386 -2.3597965 -0.62922037 0 13 0
1.3476111 -2.6146908 -0.62525982 0 14 0
1.5179893 -2.9452658 -0.6240896 0 15 0
1.7458563 -3.3873827 -0.62631398 0 16 0
2.1584947 -4.1880012 -0.66213238 0 17 0
2.5005388 -4.8516488 -0.63790977 0 18 0
4.9065466 -9.5198851 -0.99966776 0 19 0
5.0246735 -9.7490797 -0.76675028 0 20 0
0.49645099 -0.9302932 -0.62535179 0 0 0
0.53082162 -0.99469984 -0.63365215 0 1 0
0.55544686 -1.0408448 -0.62737572 0 2 0
0.59037209 -1.1062907 -0.62983584 0 3 0
0.62283993 -1.1671318 -0.62635398 0 4 0
0.66293287 -1.2422615 -0.626984 0 5 0
0.71086359 -1.3320782 -0.63063008 0 6 0
0.7463848 -1.398641 -0.61921644 0 7 0
0.80986899 -1.5176032 -0.62614703 0 8 0
0.8774426 -1.6442285 -0.6296705 0 9 0
0.95037162 -1.7808893 -0.63005924 0 10 0
1.0285443 -1.927376 -0.62647629 0 11 0
1.1259454 -2.1098948 -0.62595135 0 12 0
1.2450911 -2.3331604 -0.62680584 0 13 0
1.3826027 -2.5908415 -0.62422514 0 14 0
1.5703323 -2.9426255 -0.62822855 0 15 0
1.7893834 -3.3531027 -0.62464738 0 16 0
2.2388201 -4.1952968 -0.66828376 0 17 0
2.5718679 -4.8193903 -0.63844311 0 18 0
4.9798756 -9.3317251 -0.98729312 0 19 0
5.1627545 -9.6744194 -0.7666117 0 20 0
0.51106876 -0.92554528 -0.62701333 0 0 0
0.54061031 -0.97904503 -0.62854451 0 1 0
0.56933808 -1.0310709 -0.62633228 0 2 0
0.60126358 -1.088888 -0.62476385 0 3 0
0.64030498 -1.159592 -0.62716192 0 4 0
0.68108541 -1.2334453 -0.62739038 0 5 0
0.72362089 -1.310477 -0.62524307 0 6 0
0.77722436 -1.4075528 -0.62802291 0 7 0
0.83432096 -1.5109549 -0.62826675 0 8 0
0.89925128 -1.6285436 -0.62852865 0 9 0
0.96805477 -1.7531466 -0.62508237 0 10 0
1.0563493 -1.9130479 -0.62666953 0 11 0
1.1548593 -2.0914495 -0.62531912 0 12 0
1.2793694 -2.3169372 -0.62730283 0 13 0
1.4184749 -2.5688574 -0.62375629 0 14 0
1.6062272 -2.9088767 -0.62586761 0 15 0
1.8381119 -3.3288198 -0.6249609 0 16 0
2.3228247 -4.2066345 -0.67531681 0 17 0
2.6588173 -4.8151169 -0.64285266 0 18 0
5.0198946 -9.0910263 -0.96932995 0 19 0
5.275053 -9.5531187 -0.76290458 0 20 0
0.52415228 -0.91794246 -0.62688112 0 0 0
0.54841012 -0.96042496 -0.6215663 0 1 0
0.5839659 -1.0226934 -0.62625664 0 2 0
0.61505473 -1.077139 -0.62300998 0 3 0
0.6578505 -1.1520869 -0.62813115 0 4 0
0.70219737 -1.229751 -0.63055903 0 5 0
0.74668539 -1.3076625 -0.62893498 0 6 0
0.79734224 -1.3963773 -0.62806439 0 7 0
0.85676366 -1.5004413 -0.62892991 0 8 0
0.92356783 -1.6174349 -0.62927884 0 9 0
1.0016872 -1.7542444 -0.63052124 0 10 0
1.0787454 -1.8891957 -0.62385017 0 11 0
1.1931683 -2.0895834 -0.62980288 0 12 0
1.3132677 -2.299912 -0.62771833 0 13 0
1.4665031 -2.5682719 -0.62864655 0 14 0
1.6463754 -2.8832803 -0.62536657 0 15 0
1.8819484 -3.2958367 -0.62376201 0 16 0
2.3932095 -4.1912031 -0.67826921 0 17 0
2.732523 -4.7854395 -0.64404625 0 18 0
5.1101589 -8.9493685 -0.9619261 0 19 0
5.3815808 -9.4247074 -0.7587235 0 20 0
0.53560436 -0.90758163 -0.62497699 0 0 0
0.56082481 -0.95031768 -0.62015665 0 1 0
0.59436959 -1.0071594 -0.62189013 0 2 0
0.63890958 -1.0826323 -0.63141203 0 3 0
0.66788131 -1.131725 -0.62217796 0 4 0
0.71512961 -1.2117872 -0.62653244 0 5 0
0.76280636 -1.2925755 -0.6268658 0 6 0
0.80616826 -1.3660522 -0.6195513 0 7 0
0.87119901 -1.4762468 -0.62395144 0 8 0
0.9370746 -1.5878731 -0.62293208 0 9 0
1.0166008 -1.7226303 -0.62432438 0 10 0
1.1028715 -1.868816 -0.62226945 0 11 0
1.2138147 -2.0568092 -0.62509716 0 12 0
1.3398496 -2.2703755 -0.62482709 0 13 0
1.501206 -2.5437939 -0.62785023 0 14 0
1.6886501 -2.861418 -0.62580311 0 15 0
1.940017 -3.287359 -0.6273486 0 16 0
2.4719744 -4.1887608 -0.68352997 0 17 0
2.8163223 -4.7722588 -0.64763129 0 18 0
5.1757584 -8.7703238 -0.95054686 0 19 0
5.441771 -9.2210817 -0.74852473 0 20 0
0.5490914 -0.9007296 -0.6256066 0 0 0
0.58589846 -0.96110797 -0.63260603 0 1 0
0.61221361 -1.0042753 -0.62545609 0 2 0
0.64692366 -1.0612136 -0.62425673 0 3 0
0.69035453 -1.1324577 -0.62794882 0 4 0
0.73295218 -1.2023349 -0.62700522 0 5 0
0.78151989 -1.2820053 -0.62710041 0 6 0
0.83844405 -1.3753837 -0.62916195 0 7 0
0.89562714 -1.4691869 -0.62632161 0 8 0
0.96481651 -1.5826851 -0.62625039 0 9 0
1.0374089 -1.7017658 -0.62208045 0 10 0
1.1369433 -1.8650421 -0.62636733 0 11 0
1.2404785 -2.0348811 -0.62376523 0 12 0
1.3720322 -2.2506816 -0.62474793 0 13 0
1.5368907 -2.521116 -0.62761819 0 14 0
1.7268388 -2.8327067 -0.62486559 0 15 0
1.9852908 -3.2566712 -0.62685096 0 16 0
2.5482111 -4.1800861 -0.68799579 0 17 0
2.8950694 -4.7490726 -0.65004164 0 18 0
5.3323355 -8.7471638 -0.95621097 0 19 0
5.5243726 -9.0621815 -0.74196869 0 20 0
0.56011921 -0.88990754 -0.62359458 0 0 0
0.59499252 -0.94531369 -0.62775141 0 1 0
0.6275264 -0.99700296 -0.62645674 0 2 0
0.66441417 -1.0556095 -0.62649024 0 3 0
0.70469701 -1.1196102 -0.6263538 0 4 0
0.75141174 -1.1938298 -0.62811434 0 5 0
0.80079269 -1.2722853 -0.6278882 0 6 0
0.85033411 -1.3509958 -0.62350959 0 7 0
0.91852123 -1.4593304 -0.62766021 0 8 0
0.98833191 -1.5702443 -0.6268611 0 9 0
1.0722622 -1.7035912 -0.62829375 0 10 0
1.163505 -1.8485562 -0.62635958 0 11 0
1.2800877 -2.0337808 -0.62897998 0 12 0
1.4078702 -2.2367992 -0.62642395 0 13 0
1.5687593 -2.4924171 -0.62599957 0 14 0
1.7721909 -2.8156257 -0.62662899 0 15 0
2.0260544 -3.2189596 -0.62511003 0 16 0
2.6257153 -4.17169 -0.6927287 0 17 0
2.9711714 -4.7205448 -0.65189117 0 18 0
3.5729477 -5.6766362 -0.62607759 0 19 0
5.673039 -9.0132246 -0.74453247 0 20 0
0.57602429 -0.88676637 -0.62710679 0 0 0
0.61078036 -0.94027203 -0.63014442 0 1 0
0.63645291 -0.97979391 -0.62130404 0 2 0
0.68451923 -1.0537901 -0.63116062 0 3 0
0.72218841 -1.1117803 -0.62769204 0 4 0
0.76680899 -1.1804718 -0.62679678 0 5 0
0.81557214 -1.2555408 -0.62532163 0 6 0
0.87422007 -1.345827 -0.62683493 0 7 0
0.93790597 -1.4438689 -0.62671995 0 8 0
1.0050403 -1.5472195 -0.62334836 0 9 0
1.0914938 -1.6803113 -0.62540585 0 10 0
1.1760589 -1.8104957 -0.61910367 0 11 0
1.2989582 -1.9996943 -0.62412429 0 12 0
1.439181 -2.2155616 -0.62618113 0 13 0
1.6004859 -2.4638844 -0.62452298 0 14 0
1.8128325 -2.7907832 -0.62681079 0 15 0
2.0876315 -3.2138252 -0.62985128 0 16 0
2.6960959 -4.1505322 -0.69555223 0 17 0
3.0383322 -4.6773915 -0.65187079 0 18 0
3.6555588 -5.6275873 -0.62637454 0 19 0
5.7995348 -8.9281521 -0.74428594 0 20 0
0.57711804 -0.86121279 -0.61481446 0 0 0
0.62043458 -0.92585254 -0.62636817 0 1 0
0.65941721 -0.984025 -0.62990767 0 2 0
0.69618452 -1.0388916 -0.62814128 0 3 0
0.73766619 -1.1007931 -0.6273858 0 4 0
0.77868223 -1.1619999 -0.62284297 0 5 0
0.83448946 -1.2452791 -0.62609559 0 6 0
0.89231205 -1.3315657 -0.62607718 0 7 0
0.95280498 -1.4218372 -0.62301278 0 8 0
1.0292777 -1.5359547 -0.62468147 0 9 0
1.1201299 -1.6715302 -0.62804061 0 10 0
1.2225492 -1.8243669 -0.62976629 0 11 0
1.3295445 -1.9840323 -0.62511158 0 12 0
1.4717674 -2.1962664 -0.62661743 0 13 0
1.6409376 -2.4487131 -0.62656671 0 14 0
1.853071 -2.7652721 -0.62697405 0 15 0
2.1336391 -3.183954 -0.62991774 0 16 0
2.7914448 -4.1655741 -0.70469654 0 17 0
3.1186085 -4.653789 -0.65473539 0 18 0
3.7321503 -5.569356 -0.62577492 0 19 0
5.9113083 -8.8212357 -0.74235046 0 20 0
7.4946012 -11.183928 -0.62676001 0 21 0
0.60887843 -0.8810733 -0.63514936 0 0 0
0.62942833 -0.91080993 -0.62222272 0 1 0
0.66895056 -0.96800029 -0.6257149 0 2 0
0.70859474 -1.0253671 -0.62603235 0 3 0
0.75517344 -1.0927685 -0.6289084 0 4 0
0.80381292 -1.163152 -0.62956291 0 5 0
0.85235459 -1.2333938 -0.62618977 0 6 0
0.91214895 -1.3199188 -0.62667549 0 7 0
0.9791913 -1.416932 -0.62694049 0 8 0
1.0499638 -1.5193429 -0.62397361 0 9 0
1.1363539 -1.6443529 -0.62387669 0 10 0
1.2357907 -1.7882423 -0.62333834 0 11 0
1.3613396 -1.9699169 -0.62673938 0 12 0
1.4924152 -2.1595891 -0.62218392 0 13 0
1.6771924 -2.4269698 -0.62708151 0 14 0
1.8878336 -2.7317765 -0.62544209 0 15 0
2.1703682 -3.1406164 -0.62742555 0 16 0
2.8718555 -4.1556983 -0.70990711 0 17 0
3.2056069 -4.6386514 -0.65899342 0 18 0
3.8163674 -5.5224481 -0.62657791 0 19 0
6.0040851 -8.6881695 -0.73830891 0 20 0
7.6611385 -11.085998 -0.62735289 0 21 0
0.6128307 -0.86020404 -0.62636429 0 0 0
0.64686847 -0.90798134 -0.62655145 0 1 0
0.67976362 -0.95415485 -0.62299073 0 2 0
0.71773493 -1.0074536 -0.62130392 0 3 0
0.76544434 -1.0744212 -0.62459064 0 4 0
0.81586766 -1.1451982 -0.62610197 0 5 0
0.87323719 -1.2257253 -0.62857783 0 6 0
0.93367285 -1.3105562 -0.62851101 0 7 0
0.99825215 -1.4012034 -0.62623918 0 8 0
1.0679965 -1.4991004 -0.62187469 0 9 0
1.1637143 -1.6334554 -0.62599766 0 10 0
1.2661282 -1.7772094 -0.62574553 0 11 0
1.3944943 -1.9573915 -0.62904024 0 12 0
1.5313749 -2.1495249 -0.62553537 0 13 0
1.7150768 -2.4073792 -0.62829828 0 14 0
1.9344801 -2.7153461 -0.62795544 0 15 0
2.2318103 -3.1326959 -0.63216037 0 16 0
2.9617608 -4.1572957 -0.7173484 0 17 0
3.2894418 -4.6172476 -0.6625737 0 18 0
3.8935556 -5.4652157 -0.62634331 0 19 0
6.0581784 -8.5036039 -0.72991872 0 20 0
7.8178849 -10.973627 -0.62726212 0 21 0
0.62227112 -0.84752053 -0.62355042 0 0 0
0.66461277 -0.90518904 -0.63112432 0 1 0
0.69486672 -0.94639426 -0.62435359 0 2 0
0.73438424 -1.0002164 -0.62325943 0 3 0
0.78268981 -1.0660075 -0.62614805 0 4 0
0.83205891 -1.1332473 -0.62601525 0 5 0
0.8872211 -1.208377 -0.62612951 0 6 0
0.95829469 -1.3051778 -0.63244498 0 7 0
1.0180856 -1.3866118 -0.6261664 0 8 0
1.0911796 -1.4861643 -0.62292361 0 9 0
1.1931778 -1.6250839 -0.62927002 0 10 0
1.2885898 -1.755033 -0.62436748 0 11 0
1.4080902 -1.9177901 -0.62272692 0 12 0
1.5667081 -2.1338243 -0.627428 0 13 0
1.7465906 -2.3788209 -0.62730527 0 14 0
1.972818 -2.6869378 -0.62785167 0 15 0
2.2804732 -3.105958 -0.63328683 0 16 0
3.056268 -4.1625743 -0.72573328 0 17 0
3.377604 -4.6002278 -0.66700059 0 18 0
3.9750416 -5.4139256 -0.62692159 0 19 0
6.1112852 -8.3234453 -0.72188908 0 20 0
7.9695225 -10.854327 -0.626899 0 21 0
0.63848275 -0.84400791 -0.62762564 0 0 0
0.66778743 -0.88274568 -0.62207681 0 1 0
0.71346563 -0.94312757 -0.62887126 0 2 0
0.75117022 -0.9929691 -0.62537915 0 3 0
0.7967577 -1.053231 -0.625278 0 4 0
0.84863186 -1.1218033 -0.62633938 0 5 0
0.89626414 -1.1847682 -0.62048012 0 6 0
0.95808798 -1.2664928 -0.62028116 0 7 0
1.0350466 -1.3682241 -0.62448913 0 8 0
1.1145517 -1.4733216 -0.62416339 0 9 0
1.2143493 -1.6052437 -0.62825358 0 10 0
1.3200288 -1.7449411 -0.62743467 0 11 0
1.4438558 -1.9086275 -0.62639827 0 12 0
1.5856138 -2.0960169 -0.62292069 0 13 0
1.7817085 -2.3552337 -0.62774605 0 14 0
2.0057378 -2.6513772 -0.62618655 0 15 0
2.3174102 -3.0633757 -0.63130307 0 16 0
3.1415563 -4.1528111 -0.73179597 0 17 0
3.4646945 -4.5799665 -0.6711846 0 18 0
4.0447984 -5.3468037 -0.62578905 0 19 0
6.1332002 -8.1074543 -0.71069717 0 20 0
0.64417249 -0.82666755 -0.62152368 0 0 0
0.68411738 -0.87792885 -0.62551886 0 1 0
0.72400755 -0.92911994 -0.62637693 0 2 0
0.75721902 -0.97174031 -0.61877185 0 3 0
0.80860049 -1.0376782 -0.62285209 0 4 0
0.86055559 -1.1043524 -0.62340933 0 5 0
0.91882902 -1.1791347 -0.62435353 0 6 0
0.98866612 -1.2687567 -0.62825632 0 7 0
1.0588518 -1.3588262 -0.62705296 0 8 0
1.1422307 -1.4658265 -0.62785012 0 9 0
1.2423085 -1.5942564 -0.63084817 0 10 0
1.3428696 -1.7233067 -0.62650269 0 11 0
1.472614 -1.8898078 -0.62707525 0 12 0
1.6272322 -2.0882297 -0.62746412 0 13 0
1.810252 -2.3230991 -0.62602311 0 14 0
2.0436196 -2.6225803 -0.62622976 0 15 0
2.3807473 -3.0552166 -0.63657898 0 16 0
3.2235401 -4.1367741 -0.73702508 0 17 0
3.5618052 -4.5708704 -0.67725343 0 18 0
4.1218424 -5.289567 -0.62593108 0 19 0
6.1429133 -7.8832097 -0.69867605 0 20 0
0.66045922 -0.82299763 -0.62580788 0 0 0
0.69370311 -0.8644228 -0.62290663 0 1 0
0.7324841 -0.91274774 -0.62234384 0 2 0
0.77642131 -0.96749794 -0.62308317 0 3 0
0.82349157 -1.0261521 -0.62294483 0 4 0
0.87902206 -1.0953486 -0.62536514 0 5 0
0.9458673 -1.1786444 -0.63119799 0 6 0
0.99790055 -1.2434829 -0.62275034 0 7 0
1.0757016 -1.3404307 -0.62560517 0 8 0
1.1660601 -1.4530264 -0.62945193 0 9 0
1.24963 -1.5571628 -0.62318408 0 10 0
1.3679005 -1.7045395 -0.62673384 0 11 0
1.4978703 -1.8664949 -0.6263895 0 12 0
1.6503613 -2.0565138 -0.62496823 0 13 0
1.8368804 -2.2889349 -0.62383789 0 14 0
2.0849979 -2.598114 -0.62744945 0 15 0
2.4181783 -3.0132899 -0.63498992 0 16 0
3.2964578 -4.1077132 -0.74017811 0 17 0
3.6591029 -4.5596046 -0.68327445 0 18 0
4.1970043 -5.2298832 -0.62591308 0 19 0
6.2057204 -7.7329426 -0.69315952 0 20 0
0.66731864 -0.80758941 -0.62129092 0 0 0
0.71339762 -0.86335415 -0.62943029 0 1 0
0.74818414 -0.90545285 -0.62460774 0 2 0
0.79371929 -0.96055949 -0.62586719 0 3 0
0.84690905 -1.0249298 -0.62949735 0 4 0
0.89242798 -1.0800169 -0.62384081 0 5 0
0.9446063 -1.1431631 -0.61937392 0 6 0
1.0127187 -1.2255927 -0.62098658 0 7 0
1.088322 -1.3170879 -0.62191731 0 8 0
1.1732137 -1.4198239 -0.62227947 0 9 0
1.2741174 -1.5419375 -0.62432545 0 10 0
1.3838463 -1.6747314 -0.62299299 0 11 0
1.5168709 -1.8357179 -0.62328339 0 12 0
1.6898208 -2.045022 -0.62876189 0 13 0
1.8662153 -2.2584949 -0.62275803 0 14 0
2.1111753 -2.5549455 -0.62425804 0 15 0
2.4844007 -3.006623 -0.64101303 0 16 0
3.3599856 -4.0662565 -0.74129796 0 17 0
3.7460778 -4.533505 -0.68732798 0 18 0
4.2829466 -5.1832242 -0.6276015 0 19 0
6.3068504 -7.6325541 -0.69218189 0 20 0
0.68982649 -0.8109079 -0.63137525 0 0 0
0.71777856 -0.84376627 -0.62257612 0 1 0
0.76597202 -0.90041888 -0.62863386 0 2 0
0.80100751 -0.9416039 -0.6209231 0 3 0
0.86341673 -1.0149674 -0.63090438 0 4 0
0.90227044 -1.0606409 -0.62004513 0 5 0
0.96385485 -1.1330349 -0.6212976 0 6 0
1.0356592 -1.2174426 -0.62430418 0 7 0
1.1196457 -1.3161709 -0.62898719 0 8 0
1.2097543 -1.4220958 -0.63079971 0 9 0
1.3050799 -1.5341533 -0.62867284 0 10 0
1.4149768 -1.6633397 -0.62622529 0 11 0
1.549108 -1.8210143 -0.62575543 0 12 0
1.7142653 -2.0151608 -0.62706071 0 13 0
1.9109496 -2.2463679 -0.62689203 0 14 0
2.143162 -2.5193393 -0.62298959 0 15 0
2.5249419 -2.9681311 -0.64044613 0 16 0
3.409394 -4.0078259 -0.73946661 0 17 0
3.8181093 -4.4882808 -0.68868655 0 18 0
4.3443699 -5.1069131 -0.62582672 0 19 0
6.3810887 -7.5011258 -0.68847543 0 20 0
0.68610024 -0.78352374 -0.61763686 0 0 0
0.73857355 -0.84344798 -0.630077 0 1 0
0.78429562 -0.89566237 -0.63308579 0 2 0
0.82046103 -0.93696314 -0.62554288 0 3 0
0.87007129 -0.99361789 -0.62531066 0 4 0
0.92927301 -1.061226 -0.62809855 0 5 0
0.98313057 -1.1227312 -0.62330008 0 6 0
1.0625364 -1.2134122 -0.62997174 0 7 0
1.128279 -1.2884899 -0.62341261 0 8 0
1.2160892 -1.388769 -0.62367409 0 9 0
1.3195665 -1.5069395 -0.62519687 0 10 0
1.4443659 -1.64946 -0.62871879 0 11 0
1.5734323 -1.7968533 -0.62512791 0 12 0
1.7447197 -1.992463 -0.62770438 0 13 0
1.9427506 -2.2186134 -0.62684256 0 14 0
2.1884279 -2.4991758 -0.62568527 0 15 0
2.5573273 -2.9204574 -0.63799226 0 16 0
3.4648056 -3.956794 -0.73912549 0 17 0
3.9004691 -4.45432 -0.69197118 0 18 0
4.4211893 -5.0489802 -0.62641817 0 19 0
6.4437108 -7.3586917 -0.68379766 0 20 0
0.69977671 -0.77643442 -0.61988062 0 0 0
0.74396634 -0.82546484 -0.62453407 0 1 0
0.79145962 -0.87816083 -0.62865806 0 2 0
0.83619475 -0.92779648 -0.62734944 0 3 0
0.8794769 -0.97582 -0.62196851 0 4 0
0.93730634 -1.0399845 -0.62340313 0 5 0
1.0000752 -1.1096295 -0.62390953 0 6 0
1.0725768 -1.1900733 -0.62576121 0 7 0
1.149581 -1.2755129 -0.62503105 0 8 0
1.2300416 -1.3647877 -0.62074751 0 9 0
1.3382001 -1.4847945 -0.62389213 0 10 0
1.4641418 -1.6245327 -0.62714118 0 11 0
1.601034 -1.7764208 -0.62592793 0 12 0
1.768306 -1.9620168 -0.62602234 0 13 0
1.9705347 -2.1863987 -0.6256457 0 14 0
2.2249146 -2.4686449 -0.62595046 0 15 0
2.6081121 -2.8938203 -0.64026284 0 16 0
3.5196967 -3.9052651 -0.73883498 0 17 0
3.962867 -4.3969831 -0.69180483 0 18 0
4.4725533 -4.962503 -0.62356776 0 19 0
6.486279 -7.1968246 -0.6773141 0 20 0
0.71918011 -0.77535564 -0.62717348 0 0 0
0.76401401 -0.82369155 -0.63140148 0 1 0
0.80087221 -0.86342877 -0.62625378 0 2 0
0.83956176 -0.9051404 -0.62009209 0 3 0
0.90599996 -0.97676814 -0.63077372 0 4 0
0.95805985 -1.0328944 -0.62730902 0 5 0
1.0203885 -1.1000916 -0.62669456 0 6 0
1.0957057 -1.1812919 -0.62932593 0 7 0
1.1731424 -1.2647772 -0.62793434 0 8 0
1.2565585 -1.354709 -0.62427986 0 9 0
1.3665556 -1.473298 -0.6272161 0 10 0
1.4820601 -1.5978246 -0.62495595 0 11 0
1.6272422 -1.754347 -0.62629282 0 12 0
1.8042598 -1.9451915 -0.62882954 0 13 0
1.9977452 -2.1537902 -0.6244331 0 14 0
2.2557995 -2.4320011 -0.62478215 0 15 0
2.6440797 -2.8506103 -0.63901061 0 16 0
3.5588429 -3.8368258 -0.7354489 0 17 0
4.0213985 -4.3355122 -0.69111872 0 18 0
4.5689878 -4.9258738 -0.62711847 0 19 0
6.508544 -7.0169301 -0.66908276 0 20 0
0.72747815 -0.76212835 -0.62483275 0 0 0
0.76732045 -0.80386835 -0.62456113 0 1 0
0.81335223 -0.85209268 -0.62641144 0 2 0
0.85540706 -0.89615059 -0.62225759 0 3 0
0.91389853 -0.95742804 -0.62666762 0 4 0
0.97553557 -1.0220009 -0.62910891 0 5 0
1.0277658 -1.0767188 -0.62169641 0 6 0
1.1030301 -1.155568 -0.62396884 0 7 0
1.1829393 -1.2392834 -0.62361974 0 8 0
1.2843097 -1.3454821 -0.62843484 0 9 0
1.394992 -1.4614363 -0.63060218 0 10 0
1.4955202 -1.5667528 -0.62111181 0 11 0
1.6520092 -1.7306954 -0.62622666 0 12 0
1.8170327 -1.903579 -0.62372112 0 13 0
2.0300505 -2.1267431 -0.62495184 0 14 0
2.293026 -2.4022441 -0.62550521 0 15 0
2.6853483 -2.8132529 -0.63918704 0 16 0
3.5870068 -3.757858 -0.73007876 0 17 0
4.082159 -4.2765946 -0.69097018 0 18 0
4.638413 -4.8593431 -0.62703657 0 19 0
6.4967084 -6.8061504 -0.65778387 0 20 0
0.73890358 -0.75224173 -0.62533414 0 0 0
0.78305084 -0.79718584 -0.62801296 0 1 0
0.81862223 -0.83339936 -0.62121946 0 2 0
0.87196344 -0.88770348 -0.62499446 0 3 0
0.92761099 -0.94435549 -0.62673748 0 4 0
0.97625339 -0.99387598 -0.62033427 0 5 0
1.0547434 -1.0737828 -0.62865376 0 6 0
1.1173426 -1.137512 -0.62279105 0 7 0
1.2106339 -1.2324873 -0.62885523 0 8 0
1.2986774 -1.3221202 -0.62614119 0 9 0
1.4093083 -1.4347481 -0.6277262 0 10 0
1.5291771 -1.5567806 -0.6257714 0 11 0
1.6702548 -1.700405 -0.62385309 0 12 0
1.8481064 -1.881467 -0.62507939 0 13 0
2.0626197 -2.0998526 -0.62566137 0 14 0
2.326287 -2.3682792 -0.62526733 0 15 0
2.688926 -2.7374644 -0.63064754 0 16 0
3.6248994 -3.6903331 -0.72696579 0 17 0
4.1259561 -4.2004347 -0.68813634 0 18 0
4.6976962 -4.7824955 -0.62573272 0 19 0
6.4148369 -6.5306325 -0.63996458 0 20 0
0.75141621 -0.74339223 -0.6268543 0 0 0
0.79274184 -0.7842766 -0.62671793 0 1 0
0.83845139 -0.82949799 -0.6271928 0 2 0
0.8775301 -0.86815941 -0.62001413 0 3 0
0.94706571 -0.93695253 -0.63075626 0 4 0
0.99646068 -0.98582 -0.62414438 0 5 0
1.0692799 -1.0578616 -0.62822872 0 6 0
1.1365865 -1.1244495 -0.62448239 0 7 0
1.2194325 -1.2064108 -0.62439191 0 8 0
1.3198814 -1.3057871 -0.62728882 0 9 0
1.4244207 -1.4092101 -0.62540913 0 10 0
1.5545292 -1.5379292 -0.62707365 0 11 0
1.6960536 -1.6779424 -0.62445456 0 12 0
1.8707941 -1.8508167 -0.62372887 0 13 0
2.0936711 -2.0713139 -0.62602305 0 14 0
2.3697286 -2.3444233 -0.62785983 0 15 0
2.7561622 -2.7267306 -0.63719779 0 16 0
3.6572874 -3.6182332 -0.72300082 0 17 0
4.1734281 -4.1288624 -0.68612701 0 18 0
4.7627358 -4.7118769 -0.62534851 0 19 0
6.4121027 -6.3436313 -0.6305688 0 20 0
0.76430798 -0.73480123 -0.62877053 0 0 0
0.80123603 -0.77030361 -0.62465256 0 1 0
0.84491479 -0.81229609 -0.62326658 0 2 0
0.8992278 -0.86451232 -0.62653744 0 3 0
0.94917679 -0.91253299 -0.62339926 0 4 0
1.0075567 -0.96865904 -0.62234628 0 5 0
1.0762771 -1.0347265 -0.62357438 0 6 0
1.1708679 -1.1256655 -0.63440031 0 7 0
1.2515014 -1.2031862 -0.63192952 0 8 0
1.3351045 -1.2835616 -0.62572807 0 9 0
1.4437308 -1.3879944 -0.62510061 0 10 0
1.5841084 -1.5229524 -0.63014758 0 11 0
1.7283641 -1.6616391 -0.62752962 0 12 0
1.8949474 -1.8217914 -0.62302405 0 13 0
2.1186473 -2.036855 -0.62470973 0 14 0
2.3925915 -2.3002236 -0.62513012 0 15 0
2.7970164 -2.6890352 -0.63767922 0 16 0
3.6788421 -3.5368171 -0.71718067 0 17 0
4.2550101 -4.0907416 -0.6898424 0 18 0
4.8377757 -4.6510091 -0.62639618 0 19 0
6.4593835 -6.2100134 -0.62641311 0 20 0
0.76984215 -0.71920568 -0.62479049 0 0 0
0.81010425 -0.75681961 -0.62305725 0 1 0
0.86264992 -0.80590904 -0.62777567 0 2 0
0.90757018 -0.8478747 -0.62383032 0 3 0
0.95334113 -0.89063507 -0.61769837 0 4 0
1.0290207 -0.96133679 -0.62704068 0 5 0
1.1000831 -1.0277251 -0.62877983 0 6 0
1.1678417 -1.0910268 -0.62423539 0 7 0
1.2633655 -1.1802676 -0.62932539 0 8 0
1.3561141 -1.2669157 -0.6270116 0 9 0
1.4741507 -1.3771883 -0.62967217 0 10 0
1.5970869 -1.4920385 -0.62675083 0 11 0
1.7497153 -1.6346277 -0.62672263 0 12 0
1.9230531 -1.7965641 -0.6237461 0 13 0
2.1427414 -2.0018024 -0.62330174 0 14 0
2.4241195 -2.264673 -0.6248343 0 15 0
2.8187287 -2.6333265 -0.63397115 0 16 0
3.7126861 -3.4684839 -0.71402699 0 17 0
4.3086944 -4.0252895 -0.68913442 0 18 0
4.9051909 -4.5825515 -0.62656802 0 19 0
6.5489111 -6.118156 -0.62653857 0 20 0
0.77784824 -0.7061094 -0.62302172 0 0 0
0.82229489 -0.74645692 -0.62415177 0 1 0
0.86388487 -0.78421116 -0.62044227 0 2 0
0.92000407 -0.83515459 -0.62409627 0 3 0
0.98611677 -0.89516991 -0.63056821 0 4 0
1.0360298 -0.94047958 -0.62304503 0 5 0
1.1163448 -1.0133874 -0.62971938 0 6 0
1.1850263 -1.0757346 -0.6251266 0 7 0
1.2741376 -1.1566274 -0.62638038 0 8 0
1.3725742 -1.2459854 -0.62631202 0 9 0
1.4868722 -1.3497421 -0.62678969 0 10 0
1.6271032 -1.4770399 -0.63016903 0 11 0
1.7679925 -1.6049354 -0.62497687 0 12 0
1.9521726 -1.7721291 -0.6248998 0 13 0
2.1871572 -1.9854416 -0.62789083 0 14 0
2.4627419 -2.2356098 -0.62647724 0 15 0
2.8419065 -2.5798051 -0.63081437 0 16 0
3.7453475 -3.3999243 -0.71087641 0 17 0
4.3591852 -3.9571495 -0.68808037 0 18 0
4.9680099 -4.5098243 -0.62628263 0 19 0
6.6257982 -6.014719 -0.6255939 0 20 0
0.78830951 -0.6952883 -0.62336576 0 0 0
0.82815403 -0.73043114 -0.62059975 0 1 0
0.87708157 -0.7735852 -0.62190402 0 2 0
0.92922062 -0.81957179 -0.62232691 0 3 0
0.9829694 -0.86697817 -0.62055689 0 4 0
1.0467128 -0.92319977 -0.62145913 0 5 0
1.1181493 -0.98620677 -0.62271076 0 6 0
1.200809 -1.0591124 -0.62539124 0 7 0
1.2897613 -1.1375684 -0.62599242 0 8 0
1.3923616 -1.2280618 -0.62725604 0 9 0
1.5186665 -1.3394626 -0.63204575 0 10 0
1.6328161 -1.4401424 -0.6243341 0 11 0
1.7972977 -1.5852151 -0.62725115 0 12 0
1.9843134 -1.7501627 -0.62710506 0 13 0
2.2101512 -1.9493514 -0.6264177 0 14 0
2.4982679 -2.20347 -0.6274271 0 15 0
2.8661005 -2.5278981 -0.62808889 0 16 0
3.7589514 -3.3153918 -0.70437926 0 17 0
4.4106469 -3.8901868 -0.68734378 0 18 0
5.0276837 -4.4344125 -0.62573975 0 19 0
6.7165623 -5.9240022 -0.62609351 0 20 0
0.80429459 -0.68917441 -0.6281414 0 0 0
0.83269542 -0.71351022 -0.61628664 0 1 0
0.90077221 -0.77184308 -0.630804 0 2 0
0.94526094 -0.809964 -0.6252411 0 3 0
1.0022714 -0.85881448 -0.62491798 0 4 0
1.0641071 -0.91179943 -0.62397391 0 5 0
1.1469692 -0.98280144 -0.63086206 0 6 0
1.2205554 -1.045855 -0.62781465 0 7 0
1.3055013 -1.1186426 -0.62579644 0 8 0
1.4073247 -1.2058917 -0.62615693 0 9 0
1.524114 -1.3059648 -0.62646908 0 10 0
1.6535068 -1.4168373 -0.62442726 0 11 0
1.8163589 -1.5563802 -0.62606466 0 12 0
2.0052972 -1.7182753 -0.62589985 0 13 0
2.2381694 -1.9178162 -0.62651438 0 14 0
2.5257175 -2.1642067 -0.626477 0 15 0
2.913651 -2.4966149 -0.63061357 0 16 0
