# .PCD v0.7 - Point Cloud Data file format
VERSION 0.7
FIELDS x y z intensity ring time
SIZE 4 4 4 4 2 4
TYPE F F F F U F
COUNT 1 1 1 1 1 1
WIDTH 1220
HEIGHT 1
VIEWPOINT 0 0 0 1 0 0 0
POINTS 1220
DATA ascii
1.3922894 0.17022111 -0.62456834 0 5 0
1.4940416 0.18266131 -0.62865824 0 6 0
1.5884244 0.19420055 -0.62504292 0 7 0
1.7143613 0.20959757 -0.62867677 0 8 0
1.8360256 0.22447222 -0.62493795 0 9 0
1.9016021 0.2324896 -0.59795862 0 10 0
1.9771467 0.24172568 -0.57119459 0 11 0
2.0489237 0.25050113 -0.54027218 0 12 0
2.0763431 0.25385341 -0.49578634 0 13 0
2.1300735 0.2604225 -0.45614403 0 14 0
2.1776812 0.26624298 -0.41322249 0 15 0
2.2176592 0.27113071 -0.36718917 0 16 0
2.2876308 0.27968541 -0.32388526 0 17 0
2.3272786 0.28453276 -0.27402201 0 18 0
2.396822 0.29303512 -0.22538601 0 19 0
2.4284093 0.29689699 -0.17103282 0 20 0
2.4755564 0.30266118 -0.11610682 0 21 0
2.5446494 0.31110847 -0.059604771 0 22 0
2.6197269 0.32028744 7.5345859e-05 0 23 0
2.6818795 0.32788619 0.062973537 0 24 0
2.7571135 0.33708429 0.12947114 0 25 0
2.8326876 0.346324 0.19966985 0 26 0
2.8930876 0.35370848 0.2722204 0 27 0
3.0032904 0.36718187 0.35379317 0 28 0
3.1287932 0.38252583 0.44316149 0 29 0
3.24524 0.39676258 0.53752273 0 30 0
3.4431553 0.42095968 0.65355563 0 31 0
1.0448188 0.1429445 -0.62539971 0 0 0
1.1057465 0.15128019 -0.62722963 0 1 0
1.1698499 0.16005036 -0.62789065 0 2 0
1.2308307 0.16839331 -0.62397701 0 3 0
1.3127636 0.17960279 -0.62733376 0 4 0
1.3914815 0.19037239 -0.62536418 0 5 0
1.4887279 0.20367694 -0.62758476 0 6 0
1.6041197 0.21946399 -0.63239026 0 7 0
1.7008613 0.2326995 -0.62488365 0 8 0
1.7998335 0.24624014 -0.61375588 0 9 0
1.8720382 0.25611869 -0.58975458 0 10 0
1.9481568 0.26653266 -0.56386381 0 11 0
2.0087881 0.27482781 -0.53067189 0 12 0
2.0571535 0.28144479 -0.49211574 0 13 0
2.1028066 0.2876907 -0.45114055 0 14 0
2.1623459 0.29583645 -0.41107395 0 15 0
2.2048368 0.30164975 -0.36574352 0 16 0
2.2474129 0.3074747 -0.31878161 0 17 0
2.2982852 0.31443471 -0.27111042 0 18 0
2.361702 0.32311091 -0.2224956 0 19 0
2.3973143 0.32798311 -0.16915609 0 20 0
2.4395292 0.33375868 -0.11462942 0 21 0
2.5040309 0.3425833 -0.058762182 0 22 0
2.5931675 0.35477835 7.4720381e-05 0 23 0
2.6266382 0.35935754 0.061790861 0 24 0
2.7193346 0.37203959 0.12793404 0 25 0
2.7799807 0.38033676 0.19631827 0 26 0
2.8480368 0.38964772 0.26847869 0 27 0
2.9337499 0.40137434 0.34624246 0 28 0
3.0467687 0.41683677 0.43234435 0 29 0
3.1534619 0.43143374 0.52329034 0 30 0
3.3234465 0.4546898 0.63200396 0 31 0
1.0417835 0.15774968 -0.62487036 0 0 0
1.099436 0.1664796 -0.62493777 0 1 0
1.1657256 0.17651734 -0.62696886 0 2 0
1.2345946 0.18694566 -0.62717742 0 3 0
1.3094988 0.19828787 -0.62706566 0 4 0
1.3956048 0.21132627 -0.62851238 0 5 0
1.4876883 0.22526981 -0.62844145 0 6 0
1.5698864 0.23771648 -0.62017238 0 7 0
1.6800988 0.25440514 -0.61853009 0 8 0
1.7896217 0.27098939 -0.61153364 0 9 0
1.8474802 0.27975047 -0.58321971 0 10 0
1.9211224 0.2909016 -0.55718726 0 11 0
1.9804512 0.2998853 -0.52426618 0 12 0
2.0430932 0.30937073 -0.48976138 0 13 0
2.0817819 0.31522906 -0.44755206 0 14 0
2.1131816 0.31998369 -0.40255702 0 15 0
2.1750271 0.3293485 -0.3615436 0 16 0
2.21892 0.33599493 -0.31538993 0 17 0
2.2756088 0.34457886 -0.26898968 0 18 0
2.3034823 0.34879956 -0.2174588 0 19 0
2.3808882 0.36052057 -0.16834393 0 20 0
2.4033432 0.36392075 -0.11316226 0 21 0
2.4748225 0.37474439 -0.058196664 0 22 0
2.5377846 0.38427827 7.3275543e-05 0 23 0
2.5913341 0.39238685 0.061086208 0 24 0
2.6791594 0.4056856 0.12630421 0 25 0
2.7434411 0.41541934 0.19413793 0 26 0
2.7908573 0.42259923 0.2636317 0 27 0
2.8751943 0.43536973 0.34003234 0 28 0
2.9650919 0.4489823 0.42162293 0 29 0
3.0666759 0.46436441 0.50993967 0 30 0
3.2127481 0.48648304 0.61221445 0 31 0
1.1029267 0.18319193 -0.62834805 0 1 0
1.1638603 0.19331273 -0.62738955 0 2 0
1.2215244 0.20289052 -0.62194926 0 3 0
1.3096442 0.2175269 -0.62856185 0 4 0
1.3965189 0.23195647 -0.6303547 0 5 0
1.4802091 0.24585706 -0.62670434 0 6 0
1.5789753 0.26226175 -0.62518179 0 7 0
1.6774901 0.27862468 -0.61897451 0 8 0
1.7748736 0.29479972 -0.60787368 0 9 0
1.8204927 0.30237687 -0.57600749 0 10 0
1.8893003 0.31380555 -0.54920429 0 11 0
1.9498271 0.32385883 -0.51733351 0 12 0
1.996215 0.33156368 -0.47961247 0 13 0
2.0622635 0.34253407 -0.4443644 0 14 0
2.0982172 0.34850588 -0.4006156 0 15 0
2.1429064 0.35592857 -0.3570146 0 16 0
2.1881995 0.36345157 -0.31173092 0 17 0
2.2301776 0.37042397 -0.26421914 0 18 0
2.3069236 0.38317117 -0.21827906 0 19 0
2.3251767 0.38620293 -0.16477875 0 20 0
2.3665421 0.39307356 -0.11168294 0 21 0
2.4431841 0.40580353 -0.057583354 0 22 0
2.522248 0.41893578 7.2992611e-05 0 23 0
2.5660479 0.42621073 0.060627732 0 24 0
2.6292937 0.4367156 0.12423534 0 25 0
2.7035105 0.44904277 0.19174746 0 26 0
2.7596822 0.45837265 0.26127982 0 27 0
2.8225977 0.46882269 0.33457142 0 28 0
2.9160454 0.48434398 0.41559196 0 29 0
3.0165474 0.501037 0.50274515 0 30 0
3.1015954 0.51516312 0.5923779 0 31 0
1.092249 0.19752185 -0.6238116 0 1 0
1.1628749 0.2102938 -0.62841666 0 2 0
1.2361715 0.22354871 -0.63097149 0 3 0
1.3108714 0.23705742 -0.63071477 0 4 0
1.3783545 0.24926104 -0.62370223 0 5 0
1.4841031 0.26838458 -0.629915 0 6 0
1.5715303 0.28419486 -0.62378073 0 7 0
1.650769 0.29852435 -0.61062884 0 8 0
1.7428335 0.31517327 -0.59838408 0 9 0
1.794824 0.32457522 -0.56929749 0 10 0
1.8581524 0.33602747 -0.54149246 0 11 0
1.9215927 0.3475 -0.51110965 0 12 0
1.9698277 0.35622278 -0.47444907 0 13 0
2.0347629 0.36796561 -0.43952858 0 14 0
2.0733767 0.37494856 -0.39685678 0 15 0
2.109005 0.38139153 -0.35223991 0 16 0
2.1578436 0.3902235 -0.30817056 0 17 0
2.2040434 0.39857826 -0.26177201 0 18 0
2.256175 0.40800571 -0.21400794 0 19 0
2.2977476 0.41552368 -0.1632397 0 20 0
2.3274813 0.42090073 -0.1101126 0 21 0
2.3982306 0.43369496 -0.056664351 0 22 0
2.459305 0.44473967 7.1347982e-05 0 23 0
2.523947 0.45642948 0.059781253 0 24 0
2.5955839 0.46938428 0.1229474 0 25 0
2.6564448 0.48039031 0.18887764 0 26 0
2.717144 0.49136713 0.25789186 0 27 0
2.7966127 0.5057382 0.33231533 0 28 0
2.8471789 0.51488262 0.40678585 0 29 0
2.9506738 0.53359854 0.49298885 0 30 0
3.0446901 0.55060047 0.58295494 0 31 0
1.0998087 0.21518798 -0.62982368 0 1 0
1.1623672 0.22742817 -0.62983692 0 2 0
1.2209935 0.23889896 -0.62490571 0 3 0
1.2940181 0.25318691 -0.62428564 0 4 0
1.3870558 0.27139062 -0.62933278 0 5 0
1.4718026 0.28797212 -0.62637943 0 6 0
1.5650108 0.30620921 -0.62286884 0 7 0
1.6272985 0.31839636 -0.60357088 0 8 0
1.7168894 0.33592567 -0.59106672 0 9 0
1.7803791 0.34834802 -0.56623924 0 10 0
1.8263181 0.35733646 -0.53365135 0 11 0
1.8889233 0.36958575 -0.5037756 0 12 0
1.9530391 0.38213062 -0.47167447 0 13 0
1.9898372 0.38933051 -0.43098381 0 14 0
2.0660672 0.40424564 -0.39652458 0 15 0
2.0853281 0.40801424 -0.34922513 0 16 0
2.1329982 0.41734132 -0.30544412 0 17 0
2.1762912 0.42581198 -0.25917321 0 18 0
2.2162592 0.43363211 -0.21078889 0 19 0
2.262778 0.442734 -0.16118905 0 20 0
2.3039536 0.45079038 -0.10929358 0 21 0
2.3732703 0.46435282 -0.056225881 0 22 0
2.429471 0.47534904 7.0672606e-05 0 23 0
2.4965794 0.48847944 0.059292566 0 24 0
2.5395496 0.49688694 0.1206177 0 25 0
2.6112664 0.51091903 0.18616629 0 26 0
2.6628218 0.52100629 0.25341782 0 27 0
2.7549298 0.53902811 0.32824543 0 28 0
2.8113487 0.55006701 0.40275028 0 29 0
2.8780942 0.56312639 0.48215979 0 30 0
2.9820087 0.5834583 0.57249397 0 31 0
1.0881448 0.22912264 -0.62495828 0 1 0
1.1576643 0.24376085 -0.62911475 0 2 0
1.2244345 0.25782016 -0.6284911 0 3 0
1.3003321 0.27380133 -0.62915796 0 4 0
1.3782653 0.29021117 -0.6271649 0 5 0
1.4726359 0.31008211 -0.62855864 0 6 0
1.5653741 0.3296093 -0.62482715 0 7 0
1.6317868 0.34359333 -0.60699761 0 8 0
1.6876141 0.35534847 -0.58267957 0 9 0
1.7551323 0.36956528 -0.55983466 0 10 0
1.7953684 0.37803748 -0.52613503 0 11 0
1.8668363 0.39308596 -0.49933442 0 12 0
1.9109725 0.40237939 -0.46285859 0 13 0
1.9788741 0.41667694 -0.42985702 0 14 0
2.037262 0.42897123 -0.39213446 0 15 0
2.0680614 0.43545642 -0.34734172 0 16 0
2.0872169 0.43948987 -0.29975834 0 17 0
2.1268821 0.44784188 -0.25402647 0 18 0
2.1792316 0.45886475 -0.20787059 0 19 0
2.2396874 0.47159448 -0.16000862 0 20 0
2.2790632 0.47988558 -0.10842758 0 21 0
2.330008 0.49061266 -0.055361643 0 22 0
2.3900175 0.50324833 6.9727306e-05 0 23 0
2.4557328 0.51708555 0.058492266 0 24 0
2.5157866 0.52973068 0.11983693 0 25 0
2.5770397 0.54262823 0.18426098 0 26 0
2.6361096 0.55506617 0.25160599 0 27 0
2.7176406 0.57223356 0.32474509 0 28 0
2.7629819 0.58178073 0.39697361 0 29 0
2.8355777 0.5970667 0.47642004 0 30 0
2.9273889 0.61639869 0.56364393 0 31 0
1.0816621 0.24397524 -0.62317681 0 1 0
1.1403503 0.25721273 -0.62164271 0 2 0
1.2213707 0.27548736 -0.62887806 0 3 0
1.3067546 0.29474619 -0.63424176 0 4 0
1.3703083 0.30908111 -0.62549317 0 5 0
1.4673998 0.33098066 -0.62828141 0 6 0
1.5638775 0.35274178 -0.62618089 0 7 0
1.5984491 0.36053962 -0.5964551 0 8 0
1.670926 0.3768872 -0.57872099 0 9 0
1.7311256 0.39046559 -0.55390322 0 10 0
1.7835981 0.40230104 -0.52431953 0 11 0
1.8470855 0.416621 -0.49559581 0 12 0
1.8873426 0.42570123 -0.45856404 0 13 0
1.9354087 0.43654284 -0.42172945 0 14 0
2.0034502 0.45188996 -0.3868317 0 15 0
2.0381429 0.45971513 -0.34338674 0 16 0
2.0716879 0.46728143 -0.29845816 0 17 0
2.118403 0.47781828 -0.25380462 0 18 0
2.151412 0.48526365 -0.20585841 0 19 0
2.1967409 0.49548787 -0.15743099 0 20 0
2.2568285 0.50904095 -0.10770535 0 21 0
2.2977672 0.5182749 -0.054766241 0 22 0
2.365289 0.53350484 6.9221562e-05 0 23 0
2.4207611 0.54601693 0.057839513 0 24 0
2.4640658 0.55578452 0.11774012 0 25 0
2.5390027 0.57268703 0.18210876 0 26 0
2.6046052 0.58748406 0.24937609 0 27 0
2.6565781 0.59920686 0.31844071 0 28 0
2.7415509 0.61837298 0.39512572 0 29 0
2.8005087 0.63167125 0.47199863 0 30 0
2.8739846 0.64824414 0.55509108 0 31 0
1.0686743 0.2571725 -0.61775166 0 1 0
1.1444327 0.27540344 -0.6259529 0 2 0
1.2055621 0.29011405 -0.62281263 0 3 0
1.2873209 0.30978897 -0.62689745 0 4 0
1.3675824 0.32910362 -0.62633497 0 5 0
1.4557507 0.35032099 -0.62537664 0 6 0
1.5301026 0.3682135 -0.61470467 0 7 0
1.5963846 0.38416401 -0.59767532 0 8 0
1.6532151 0.39784005 -0.57450026 0 9 0
1.704409 0.41015968 -0.5471772 0 10 0
1.7728252 0.42662379 -0.5228942 0 11 0
1.8296946 0.4403092 -0.49257019 0 12 0
1.8554559 0.44650853 -0.45232308 0 13 0
1.9208368 0.46224222 -0.41995287 0 14 0
1.9777532 0.47593895 -0.38314617 0 15 0
2.0057268 0.48267072 -0.33905455 0 16 0
2.047823 0.49280095 -0.2960059 0 17 0
2.0909424 0.50317752 -0.25135174 0 18 0
2.1358728 0.51398981 -0.20505448 0 19 0
2.1830952 0.52535373 -0.15697587 0 20 0
2.2120483 0.53232121 -0.10592103 0 21 0
2.2621882 0.54438716 -0.054098412 0 22 0
2.317246 0.55763662 6.804218e-05 0 23 0
2.3757401 0.57171297 0.056953508 0 24 0
2.4364116 0.58631337 0.11680777 0 25 0
2.5064223 0.60316116 0.18037269 0 26 0
2.5763292 0.61998403 0.24749313 0 27 0
2.6135898 0.62895066 0.31433463 0 28 0
2.6825135 0.6455369 0.38790894 0 29 0
2.7651262 0.66541731 0.46759263 0 30 0
2.8311636 0.68130898 0.54864782 0 31 0
1.0826614 0.27698913 -0.62806445 0 1 0
1.148571 0.29385152 -0.63045233 0 2 0
1.2016944 0.30744267 -0.62302411 0 3 0
1.2811494 0.3277705 -0.62611258 0 4 0
1.3572108 0.34723011 -0.62379718 0 5 0
1.435608 0.36728737 -0.61891854 0 6 0
1.5463713 0.39562514 -0.62345159 0 7 0
1.5958782 0.40829104 -0.5996123 0 8 0
1.6344647 0.41816306 -0.57000601 0 9 0
1.7083385 0.43706298 -0.55039072 0 10 0
1.7432482 0.44599432 -0.51600051 0 11 0
1.8004353 0.46062511 -0.48641843 0 12 0
1.8312391 0.46850598 -0.44800842 0 13 0
1.8978772 0.48555475 -0.41641006 0 14 0
1.9474568 0.49823925 -0.37861967 0 15 0
1.9915003 0.50950736 -0.33784783 0 16 0
2.0251789 0.51812375 -0.29377466 0 17 0
2.0334132 0.52023041 -0.24530613 0 18 0
2.1012886 0.53759569 -0.20245221 0 19 0
2.1386909 0.54716474 -0.15433031 0 20 0
2.1769602 0.55695564 -0.1046119 0 21 0
2.2380672 0.57258928 -0.05371207 0 22 0
2.3003228 0.58851683 6.7785659e-05 0 23 0
2.3450315 0.59995514 0.056417421 0 24 0
2.4180257 0.61863005 0.1163389 0 25 0
2.4573662 0.62869495 0.17747182 0 26 0
2.5235598 0.64563 0.2432867 0 27 0
2.5905032 0.66275686 0.31266692 0 28 0
2.6553352 0.67934358 0.38534543 0 29 0
2.725862 0.69738716 0.46259353 0 30 0
2.8007903 0.71655697 0.54469359 0 31 0
1.0721991 0.29072398 -0.62434518 0 1 0
1.1370659 0.30831242 -0.62649536 0 2 0
1.2082865 0.32762372 -0.62880868 0 3 0
1.2622789 0.34226361 -0.61922115 0 4 0
1.3452932 0.36477271 -0.62065583 0 5 0
1.4474225 0.39246482 -0.62636971 0 6 0
1.5382007 0.41707906 -0.62250054 0 7 0
1.573675 0.42669782 -0.59350389 0 8 0
1.6197296 0.43918544 -0.56700146 0 9 0
1.6775793 0.45487121 -0.54252279 0 10 0
1.7286323 0.46871412 -0.51360738 0 11 0
1.7614942 0.47762451 -0.47769585 0 12 0
1.8258233 0.49506718 -0.44837114 0 13 0
1.8604566 0.50445795 -0.40974194 0 14 0
1.8987534 0.51484197 -0.37054563 0 15 0
1.9567127 0.53055751 -0.33320045 0 16 0
1.9968239 0.54143357 -0.29075587 0 17 0
2.0213323 0.54807895 -0.24477006 0 18 0
2.0572824 0.5578267 -0.19896127 0 19 0
2.1101553 0.57216305 -0.15284647 0 20 0
2.1481583 0.58246744 -0.10361786 0 21 0
2.2068009 0.59836823 -0.053161804 0 22 0
2.2520771 0.61064476 6.6614703e-05 0 23 0
2.3284793 0.63136101 0.056230858 0 24 0
2.3788896 0.64502966 0.11488838 0 25 0
2.4372182 0.66084528 0.17668176 0 26 0
2.4945514 0.67639107 0.24139875 0 27 0
2.5543733 0.69261158 0.30947098 0 28 0
2.6213186 0.71076369 0.38184616 0 29 0
2.6959066 0.73098803 0.45923853 0 30 0
2.7578745 0.7477904 0.53837383 0 31 0
1.0698344 0.30658567 -0.62545943 0 1 0
1.1325246 0.32455102 -0.62648851 0 2 0
1.1879694 0.34044001 -0.62070769 0 3 0
1.2770293 0.36596215 -0.62896222 0 4 0
1.3514084 0.38727722 -0.62597042 0 5 0
1.4356829 0.411428 -0.62377393 0 6 0
1.51621 0.4345049 -0.61605483 0 7 0
1.578684 0.45240825 -0.59777403 0 8 0
1.6160117 0.46310538 -0.56796223 0 9 0
1.6628122 0.47651714 -0.53989762 0 10 0
1.6877606 0.48366669 -0.50346905 0 11 0
1.7528634 0.50232339 -0.47725627 0 12 0
1.8004215 0.51595223 -0.44390124 0 13 0
1.843311 0.52824324 -0.40758929 0 14 0
1.8835037 0.53976136 -0.36903954 0 15 0
1.9414662 0.55637187 -0.33192629 0 16 0
1.9656146 0.56329215 -0.28735605 0 17 0
1.9994004 0.57297421 -0.24308246 0 18 0
2.0498548 0.5874331 -0.19903572 0 19 0
2.0863457 0.59789038 -0.15172619 0 20 0
2.123343 0.60849285 -0.10283046 0 21 0
2.1686101 0.62146515 -0.052450698 0 22 0
2.2296207 0.63894922 6.6214197e-05 0 23 0
2.2831395 0.65428621 0.055356428 0 24 0
2.3553739 0.67498666 0.11420759 0 25 0
2.4067826 0.68971896 0.1751731 0 26 0
2.4542685 0.70332718 0.2384503 0 27 0
2.5281894 0.72451091 0.30752364 0 28 0
2.5870976 0.74139243 0.37836829 0 29 0
2.6499314 0.75939894 0.45321199 0 30 0
2.7364714 0.78419894 0.53633195 0 31 0
1.0727061 0.32409218 -0.6297859 0 1 0
1.1307616 0.34163222 -0.62815398 0 2 0
1.198602 0.36212853 -0.62890697 0 3 0
1.2566502 0.37966639 -0.62153798 0 4 0
1.3468089 0.40690568 -0.62647355 0 5 0
1.4309856 0.43233761 -0.6243577 0 6 0
1.5131786 0.45717025 -0.61741871 0 7 0
1.5644245 0.47265297 -0.5948754 0 8 0
1.581722 0.47787896 -0.55825758 0 9 0
1.6281929 0.49191904 -0.53088892 0 10 0
1.689087 0.51031673 -0.50599182 0 11 0
1.7336497 0.52378029 -0.47401759 0 12 0
1.7823266 0.53848678 -0.44129503 0 13 0
1.8203174 0.54996479 -0.40420422 0 14 0
1.8530273 0.5598473 -0.36460096 0 15 0
1.9154499 0.5787068 -0.32886085 0 16 0
1.9465271 0.58809602 -0.28576696 0 17 0
1.9931105 0.60217005 -0.24334073 0 18 0
2.006434 0.60619545 -0.19564213 0 19 0
2.0636432 0.62347978 -0.15070875 0 20 0
2.0991828 0.6342172 -0.10208958 0 21 0
2.1553888 0.65119851 -0.052351005 0 22 0
2.2119589 0.66828984 6.5967004e-05 0 23 0
2.2615795 0.68328142 0.055065174 0 24 0
2.3093209 0.69770539 0.11244728 0 25 0
2.3656263 0.71471667 0.17290449 0 26 0
2.4141984 0.72939152 0.23554741 0 27 0
2.4903092 0.75238663 0.30419475 0 28 0
2.5377576 0.76672196 0.37271905 0 29 0
2.6168065 0.79060471 0.44943607 0 30 0
2.6920707 0.81334394 0.5298571 0 31 0
1.0564061 0.33574024 -0.62297368 0 1 0
1.1253368 0.35764733 -0.62791985 0 2 0
1.1855919 0.37679726 -0.62484646 0 3 0
1.2624679 0.40122944 -0.6271916 0 4 0
1.3355131 0.42444423 -0.62398124 0 5 0
1.4117001 0.44865751 -0.61868179 0 6 0
1.5034317 0.47781104 -0.6161691 0 7 0
1.5388637 0.48907182 -0.58775753 0 8 0
1.5851177 0.50377196 -0.56194353 0 9 0
1.641185 0.52159095 -0.53750437 0 10 0
1.6635709 0.52870548 -0.5005638 0 11 0
1.7213515 0.54706895 -0.47274759 0 12 0
1.7513026 0.55658776 -0.43554154 0 13 0
1.7993422 0.57185543 -0.40132308 0 14 0
1.8280458 0.58097786 -0.36128482 0 15 0
1.8880479 0.60004729 -0.32559747 0 16 0
1.918591 0.60975432 -0.28291804 0 17 0
1.9518898 0.62033713 -0.23936759 0 18 0
1.992244 0.63316226 -0.1951222 0 19 0
2.0321696 0.64585114 -0.14907007 0 20 0
2.0752041 0.65952808 -0.10137215 0 21 0
2.1152978 0.67227042 -0.051605687 0 22 0
2.1736295 0.69080901 6.5112115e-05 0 23 0
2.2202792 0.70563495 0.054299947 0 24 0
2.2815597 0.72511077 0.11158946 0 25 0
2.3305979 0.74069571 0.17110161 0 26 0
2.4034753 0.76385713 0.2355438 0 27 0
2.4509375 0.77894127 0.30071655 0 28 0
2.5247421 0.80239737 0.3724561 0 29 0
2.5842593 0.82131273 0.44581947 0 30 0
2.6521184 0.84287935 0.52431446 0 31 0
1.0536548 0.35154647 -0.62425464 0 1 0
1.1172538 0.37276593 -0.62632269 0 2 0
1.1839943 0.39503357 -0.62692022 0 3 0
1.256366 0.41918001 -0.62707675 0 4 0
1.3277802 0.44300699 -0.62326711 0 5 0
1.4309052 0.4774141 -0.63002872 0 6 0
1.4842341 0.49520701 -0.61114353 0 7 0
1.530025 0.51048493 -0.58711225 0 8 0
1.5625652 0.5213418 -0.55653679 0 9 0
1.6224018 0.54130596 -0.53383553 0 10 0
1.6361727 0.54590052 -0.4946202 0 11 0
1.6871461 0.56290758 -0.46551862 0 12 0
1.7328991 0.5781728 -0.43297842 0 13 0
1.7808207 0.59416163 -0.39904803 0 14 0
1.8119942 0.60456246 -0.3597858 0 15 0
1.8527821 0.61817116 -0.32100883 0 16 0
1.8950106 0.63226044 -0.28074655 0 17 0
1.9335951 0.64513397 -0.23823206 0 18 0
1.9660696 0.6559689 -0.19345841 0 19 0
2.0040121 0.66862828 -0.14769147 0 20 0
2.0506797 0.68419868 -0.10064223 0 21 0
2.098947 0.70030278 -0.051446058 0 22 0
2.1472614 0.71642262 6.4622807e-05 0 23 0
2.1990197 0.73369151 0.054031312 0 24 0
2.2538309 0.75197905 0.11074835 0 25 0
2.3152666 0.77247673 0.17077032 0 26 0
2.3651195 0.78910989 0.23286794 0 27 0
2.4122972 0.80485046 0.29735857 0 28 0
2.4802351 0.82751757 0.36760002 0 29 0
2.5420208 0.84813207 0.44058192 0 30 0
2.6191807 0.87387604 0.52022231 0 31 0
1.0385627 0.36311054 -0.61832899 0 1 0
1.0941721 0.38255316 -0.61638975 0 2 0
1.1682554 0.40845481 -0.62161857 0 3 0
1.2476308 0.43620664 -0.62576908 0 4 0
1.3224003 0.46234813 -0.6237843 0 5 0
1.4241279 0.49791494 -0.63011813 0 6 0
1.4794238 0.51724792 -0.61214864 0 7 0
1.5102659 0.52803123 -0.58237076 0 8 0
1.5346452 0.53655487 -0.54927164 0 9 0
1.5881051 0.555246 -0.52511179 0 10 0
1.6318239 0.57053131 -0.49572352 0 11 0
1.6791123 0.58706462 -0.46557277 0 12 0
1.7117814 0.59848666 -0.42979836 0 13 0
1.7653332 0.61720985 -0.39751646 0 14 0
1.7991805 0.62904382 -0.35899255 0 15 0
1.8399796 0.64330834 -0.32035324 0 16 0
1.8660262 0.65241492 -0.27780753 0 17 0
1.9176435 0.67046183 -0.23742478 0 18 0
1.9646192 0.68688577 -0.19426322 0 19 0
1.9868731 0.69466639 -0.14714608 0 20 0
2.0165336 0.70503658 -0.099451512 0 21 0
2.0683818 0.72316408 -0.050945379 0 22 0
2.1177814 0.7404356 6.4047992e-05 0 23 0
2.1672935 0.75774646 0.053512797 0 24 0
2.2278836 0.77893043 0.11000993 0 25 0
2.2809775 0.79749346 0.16906583 0 26 0
2.3163342 0.80985528 0.22918244 0 27 0
2.3834469 0.83331972 0.29524234 0 28 0
2.4498198 0.85652548 0.3648718 0 29 0
2.5168216 0.87995118 0.43835247 0 30 0
2.5956419 0.90750903 0.51807398 0 31 0
1.0501746 0.38412434 -0.62845141 0 1 0
1.1107346 0.40627548 -0.62893152 0 2 0
1.169542 0.42778555 -0.62549704 0 3 0
1.2386543 0.45306492 -0.62445539 0 4 0
1.315747 0.48126328 -0.62383133 0 5 0
1.3835545 0.50606537 -0.61530799 0 6 0
1.4444768 0.52834898 -0.60075611 0 7 0
1.5044507 0.55028576 -0.58310586 0 8 0
1.5243962 0.55758125 -0.54840374 0 9 0
1.5708127 0.57455915 -0.5220598 0 10 0
1.6199946 0.59254849 -0.49465582 0 11 0
1.6578381 0.60639054 -0.46203327 0 12 0
1.6945716 0.61982667 -0.42766106 0 13 0
1.7238214 0.63052541 -0.39016116 0 14 0
1.751501 0.6406498 -0.3512727 0 15 0
1.8056905 0.66047084 -0.31599683 0 16 0
1.8469546 0.67556411 -0.2763795 0 17 0
1.8778051 0.68684834 -0.23368561 0 18 0
1.9161315 0.70086706 -0.19044118 0 19 0
1.9541746 0.71478218 -0.14546727 0 20 0
1.9949201 0.72968572 -0.098890543 0 21 0
2.0454266 0.74815953 -0.050638556 0 22 0
2.0900421 0.76447862 6.3533495e-05 0 23 0
2.1386058 0.78224188 0.053075481 0 24 0
2.1993642 0.80446553 0.10915907 0 25 0
2.2441971 0.82086426 0.16719343 0 26 0
2.3157279 0.8470282 0.23029841 0 27 0
2.3544731 0.86120003 0.29315019 0 28 0
2.4190617 0.88482475 0.36213994 0 29 0
2.4721587 0.90424615 0.43278348 0 30 0
2.5632372 0.93756014 0.51423204 0 31 0
1.1140019 0.42564425 -0.63416636 0 2 0
1.1554782 0.44149175 -0.62129152 0 3 0
1.2428713 0.47488341 -0.62994361 0 4 0
1.3202465 0.50444734 -0.6293236 0 5 0
1.3763283 0.52587545 -0.6153788 0 6 0
1.4244635 0.54426724 -0.59561157 0 7 0
1.469517 0.56148148 -0.57262224 0 8 0
1.5121567 0.57777351 -0.54691964 0 9 0
1.5601869 0.59612519 -0.52131069 0 10 0
1.5912652 0.60799974 -0.4884907 0 11 0
1.6303948 0.62295061 -0.45682314 0 12 0
1.6741768 0.63967913 -0.4247812 0 13 0
1.7145535 0.65510643 -0.39014584 0 14 0
1.7462869 0.66723132 -0.3521063 0 15 0
1.7722379 0.67714685 -0.31180683 0 16 0
1.8247209 0.69719982 -0.27451763 0 17 0
1.8576919 0.70979756 -0.23242311 0 18 0
1.8996277 0.72582066 -0.18981399 0 19 0
1.9371117 0.74014276 -0.14497086 0 20 0
1.9811429 0.75696647 -0.098734565 0 21 0
2.0171335 0.77071792 -0.050206073 0 22 0
2.0401208 0.77950108 6.234875e-05 0 23 0
2.1100583 0.80622321 0.052647997 0 24 0
2.1750178 0.83104336 0.10852998 0 25 0
2.2137311 0.84583509 0.16580866 0 26 0
2.267839 0.86650896 0.2267461 0 27 0
2.3217335 0.88710129 0.29062504 0 28 0
2.3794491 0.90915358 0.35812125 0 29 0
2.4423447 0.9331851 0.42985848 0 30 0
2.5175073 0.96190363 0.50776792 0 31 0
1.0941244 0.43609503 -0.62633997 0 2 0
1.1539613 0.45994475 -0.62395179 0 3 0
1.2257022 0.48853919 -0.62472177 0 4 0
1.2994213 0.5179221 -0.62286669 0 5 0
1.3546418 0.53993177 -0.60907543 0 6 0
1.3921893 0.55489743 -0.58537775 0 7 0
1.4316381 0.57062095 -0.56098729 0 8 0
1.4942843 0.59559035 -0.54348314 0 9 0
1.5480956 0.61703843 -0.52016836 0 10 0
1.5804304 0.62992638 -0.48788249 0 11 0
1.6212035 0.64617771 -0.45679256 0 12 0
1.6587492 0.66114265 -0.42322454 0 13 0
1.6871604 0.67246675 -0.38606325 0 14 0
1.7285597 0.68896765 -0.35048443 0 15 0
1.7662082 0.70397353 -0.31248677 0 16 0
1.7974956 0.71644402 -0.27193666 0 17 0
1.833625 0.73084444 -0.23069718 0 18 0
1.8608212 0.74168432 -0.186978 0 19 0
1.9178178 0.76440197 -0.14433098 0 20 0
1.9467806 0.7759459 -0.097565569 0 21 0
1.984483 0.79097331 -0.049670111 0 22 0
2.0408542 0.81344169 6.2720574e-05 0 23 0
2.08199 0.8298375 0.052238677 0 24 0
2.1394019 0.85272074 0.10735083 0 25 0
2.1972497 0.87577766 0.16549616 0 26 0
2.2417762 0.89352494 0.22539589 0 27 0
2.3120308 0.92152703 0.29103178 0 28 0
2.3475282 0.93567544 0.35529625 0 29 0
2.4085095 0.95998132 0.42627811 0 30 0
2.4910498 0.99288023 0.50524622 0 31 0
1.083173 0.44980013 -0.62369245 0 2 0
1.1481801 0.47679508 -0.62445199 0 3 0
1.2200888 0.50665605 -0.62549287 0 4 0
1.2840462 0.53321505 -0.61909175 0 5 0
1.3362012 0.55487299 -0.60429323 0 6 0
1.3793952 0.57280982 -0.58338588 0 7 0
1.4294168 0.59358186 -0.56338841 0 8 0
1.476705 0.61321884 -0.54022646 0 9 0
1.5106385 0.6273101 -0.51054728 0 10 0
1.5486892 0.64311111 -0.48087633 0 11 0
1.5905511 0.66049474 -0.45077348 0 12 0
1.6226718 0.67383325 -0.41643772 0 13 0
1.6750691 0.69559181 -0.38553521 0 14 0
1.7121856 0.71100485 -0.34919211 0 15 0
1.7445277 0.72443533 -0.31045374 0 16 0
1.7715925 0.73567426 -0.26958331 0 17 0
1.8092859 0.75132686 -0.22896454 0 18 0
1.8492033 0.76790309 -0.18689589 0 19 0
1.8900708 0.78487378 -0.1430736 0 20 0
1.9203227 0.79743624 -0.096801713 0 21 0
1.9491618 0.809412 -0.049070999 0 22 0
2.0048876 0.83255279 6.1975108e-05 0 23 0
2.0559843 0.85377127 0.051887482 0 24 0
2.1209891 0.88076526 0.10704853 0 25 0
2.1437111 0.89020079 0.16240671 0 26 0
2.2088251 0.9172402 0.22338003 0 27 0
2.2747085 0.94459909 0.28800619 0 28 0
2.3157115 0.96162599 0.35252792 0 29 0
2.3854923 0.99060327 0.42467037 0 30 0
2.4546518 1.0193225 0.5007717 0 31 0
1.0249085 0.44290769 -0.62749243 0 1 0
1.0803565 0.46686918 -0.62585443 0 2 0
1.1471351 0.49572712 -0.62767839 0 3 0
1.2237095 0.52881825 -0.63116485 0 4 0
1.2818969 0.5539636 -0.62181479 0 5 0
1.3217252 0.57117516 -0.60138226 0 6 0
1.3502768 0.5835135 -0.57454437 0 7 0
1.3986195 0.60440451 -0.55460292 0 8 0
1.4527755 0.62780768 -0.53470492 0 9 0
1.4982045 0.64743948 -0.50942475 0 10 0
1.553609 0.67138219 -0.48533812 0 11 0
1.5791705 0.68242842 -0.4502703 0 12 0
1.6120698 0.69664568 -0.41623324 0 13 0
1.6508931 0.71342289 -0.38228199 0 14 0
1.6820438 0.72688448 -0.3451314 0 15 0
1.7145218 0.74091965 -0.30696973 0 16 0
1.7478716 0.75533158 -0.26759148 0 17 0
1.784742 0.77126485 -0.22723228 0 18 0
1.8239547 0.78821033 -0.18546532 0 19 0
1.8627709 0.80498457 -0.14186475 0 20 0
1.9042161 0.82289481 -0.096573643 0 21 0
1.9453247 0.84065968 -0.04927228 0 22 0
1.9867992 0.85858262 6.178952e-05 0 23 0
2.0379822 0.88070101 0.051745992 0 24 0
2.0693331 0.89424908 0.10507666 0 25 0
2.1299622 0.92044955 0.1623466 0 26 0
2.1811092 0.94255245 0.22191873 0 27 0
2.2202713 0.95947611 0.28282362 0 28 0
2.2918344 0.99040157 0.35101515 0 29 0
2.3627939 1.0210663 0.42318797 0 30 0
2.4237525 1.0474093 0.49747556 0 31 0
0.96165377 0.43200931 -0.62521148 0 0 0
1.0218543 0.45905358 -0.6295808 0 1 0
1.0606815 0.47649613 -0.61834431 0 2 0
1.1203043 0.50328088 -0.61687589 0 3 0
1.2027284 0.54030865 -0.62426817 0 4 0
1.2716306 0.571262 -0.62073761 0 5 0
1.3090615 0.58807731 -0.59938878 0 6 0
1.3472998 0.60525537 -0.57690477 0 7 0
1.3816725 0.62069678 -0.55134934 0 8 0
1.4362375 0.64520931 -0.53196257 0 9 0
1.4700474 0.66039789 -0.50301325 0 10 0
1.5119455 0.67922008 -0.4753111 0 11 0
1.5570308 0.69947404 -0.44676656 0 12 0
1.5985245 0.71811444 -0.41534725 0 13 0
1.622358 0.72882128 -0.37805128 0 14 0
1.660043 0.74575073 -0.34277225 0 15 0
1.70921 0.76783836 -0.30795491 0 16 0
1.7346741 0.77927774 -0.26725125 0 17 0
1.7685472 0.79449475 -0.22659503 0 18 0
1.8035369 0.81021339 -0.18454948 0 19 0
1.8331676 0.82352453 -0.14049353 0 20 0
1.8668873 0.83867264 -0.095279537 0 21 0
1.9028203 0.85481507 -0.048500646 0 22 0
1.9556012 0.87852609 6.1204068e-05 0 23 0
2.0183518 0.90671593 0.051571809 0 24 0
2.0459683 0.91912222 0.10454755 0 25 0
2.0942802 0.9408257 0.16063689 0 26 0
2.1493266 0.96555442 0.2200686 0 27 0
2.1948347 0.98599833 0.28135234 0 28 0
2.2685144 1.0190979 0.34964177 0 29 0
2.3274763 1.0455858 0.41949993 0 30 0
2.4031632 1.079587 0.4963704 0 31 0
0.95455825 0.44534841 -0.62467873 0 0 0
0.99536544 0.464387 -0.6172927 0 1 0
1.0628866 0.49588895 -0.62370378 0 2 0
1.1353555 0.52969921 -0.62927377 0 3 0
1.199025 0.55940419 -0.62643772 0 4 0
1.253078 0.58462256 -0.61570293 0 5 0
1.2990896 0.60608923 -0.59873372 0 6 0
1.3403113 0.62532121 -0.57768571 0 7 0
1.3834153 0.64543134 -0.55567437 0 8 0
1.4346715 0.6693449 -0.53487629 0 9 0
1.4798945 0.69044363 -0.5097121 0 10 0
1.517184 0.70784104 -0.48009384 0 11 0
1.5307603 0.71417505 -0.44211644 0 12 0
1.5701227 0.73253959 -0.4106499 0 13 0
1.611315 0.7517578 -0.3779467 0 14 0
1.626722 0.75894588 -0.3381004 0 15 0
1.6714845 0.7798298 -0.30313781 0 16 0
1.7059823 0.79592478 -0.26455897 0 17 0
1.7384781 0.81108564 -0.22420692 0 18 0
1.7767972 0.82896334 -0.1830087 0 19 0
1.8099389 0.84442562 -0.13962531 0 20 0
1.8558314 0.86583668 -0.095338009 0 21 0
1.8808575 0.87751263 -0.04825604 0 22 0
1.9314361 0.90110999 6.084521e-05 0 23 0
1.9764951 0.92213231 0.050834354 0 24 0
1.9959664 0.93121666 0.10266308 0 25 0
2.071455 0.96643573 0.15993077 0 26 0
2.1137791 0.98618209 0.21785192 0 27 0
2.1660936 1.0105892 0.27949369 0 28 0
2.2352138 1.0428373 0.34677428 0 29 0
2.2987707 1.0724896 0.41705018 0 30 0
2.3700535 1.1057467 0.49275023 0 31 0
0.94598043 0.45794481 -0.62329096 0 0 0
1.0035622 0.48581991 -0.62662435 0 1 0
1.0540541 0.51026285 -0.62274289 0 2 0
1.1441534 0.55387944 -0.63847876 0 3 0
1.1883268 0.57526362 -0.62508631 0 4 0
1.238253 0.59943265 -0.61257166 0 5 0
1.3011837 0.62989712 -0.60379243 0 6 0
1.3380077 0.64772344 -0.58062935 0 7 0
1.3797306 0.6679213 -0.5579772 0 8 0
1.4142978 0.68465519 -0.53087974 0 9 0
1.454881 0.70430124 -0.50451726 0 10 0
1.4829639 0.7178961 -0.47246853 0 11 0
1.5215665 0.73658347 -0.44246083 0 12 0
1.5612645 0.75580108 -0.41112041 0 13 0
1.5803558 0.76504302 -0.37321523 0 14 0
1.6188141 0.78366053 -0.33875346 0 15 0
1.652977 0.80019867 -0.30182761 0 16 0
1.6683695 0.80765015 -0.26049212 0 17 0
1.7213566 0.83330089 -0.22351415 0 18 0
1.7434369 0.84398991 -0.18079837 0 19 0
1.7763766 0.85993582 -0.13797159 0 20 0
1.8218644 0.88195628 -0.094231918 0 21 0
1.8605353 0.90067667 -0.048060477 0 22 0
1.9143369 0.92672181 6.0718194e-05 0 23 0
1.9488658 0.9434371 0.050465886 0 24 0
1.9899542 0.96332783 0.1030525 0 25 0
2.042649 0.98883712 0.15878324 0 26 0
2.0952158 1.0142845 0.21741271 0 27 0
2.1497388 1.0406789 0.27927685 0 28 0
2.1877623 1.0590857 0.34172943 0 29 0
2.2693834 1.0985982 0.41452906 0 30 0
2.3280094 1.1269788 0.48731276 0 31 0
0.92792737 0.46571425 -0.61572516 0 0 0
0.99027288 0.49700463 -0.62270457 0 1 0
1.0532401 0.52860701 -0.62666786 0 2 0
1.1146914 0.55944854 -0.62644225 0 3 0
1.1853316 0.59490192 -0.62792552 0 4 0
1.2461834 0.62544262 -0.62086004 0 5 0
1.285257 0.64505315 -0.60062474 0 6 0
1.3352457 0.67014188 -0.58353347 0 7 0
1.3776873 0.69144273 -0.56109583 0 8 0
1.4044198 0.70485938 -0.53090453 0 9 0
1.4390208 0.72222513 -0.50255066 0 10 0
1.4655553 0.73554248 -0.47022822 0 11 0
1.5153735 0.76054549 -0.44378006 0 12 0
1.5158761 0.76079774 -0.40199479 0 13 0
1.5479543 0.77689743 -0.36815175 0 14 0
1.602748 0.80439764 -0.33776623 0 15 0
1.6149246 0.81050891 -0.2969673 0 16 0
1.6638761 0.83507699 -0.26163 0 17 0
1.6873535 0.84685999 -0.22065029 0 18 0
1.7253957 0.86595285 -0.18019436 0 19 0
1.7565386 0.88158303 -0.13739678 0 20 0
1.8023438 0.90457213 -0.09388233 0 21 0
1.8373598 0.92214614 -0.047797877 0 22 0
1.8674436 0.93724477 5.9650232e-05 0 23 0
1.9245087 0.96588498 0.05018802 0 24 0
1.9724736 0.98995793 0.10287051 0 25 0
2.028759 1.0182068 0.15882014 0 26 0
2.0697112 1.0387602 0.21628685 0 27 0
2.1163805 1.0621829 0.27688995 0 28 0
2.1810575 1.0946434 0.34309435 0 29 0
2.2251697 1.1167827 0.40933079 0 30 0
2.2989528 1.1538135 0.48463789 0 31 0
0.93542445 0.48635998 -0.62525505 0 0 0
0.97449923 0.50667632 -0.61728293 0 1 0
1.0531509 0.54757011 -0.63121349 0 2 0
1.1067158 0.57542038 -0.62652463 0 3 0
1.1683203 0.60745066 -0.623456 0 4 0
1.2307098 0.63988918 -0.61765081 0 5 0
1.2717192 0.66121143 -0.59865975 0 6 0
1.3301252 0.69157875 -0.58556175 0 7 0
1.3737699 0.71427113 -0.5636065 0 8 0
1.3885586 0.72196031 -0.52876091 0 9 0
1.4210107 0.73883331 -0.49990299 0 10 0
1.4554622 0.75674587 -0.47041705 0 11 0
1.4809507 0.76999819 -0.43688217 0 12 0
1.5134407 0.78689092 -0.40429446 0 13 0
1.5502305 0.80601919 -0.3713989 0 14 0
1.5706704 0.81664664 -0.33343536 0 15 0
1.6093118 0.83673763 -0.298107 0 16 0
1.6439986 0.85477251 -0.26040158 0 17 0
1.6588707 0.86250508 -0.21851768 0 18 0
1.6992413 0.88349515 -0.17876527 0 19 0
1.7409817 0.90519744 -0.13717932 0 20 0
1.7790061 0.92496771 -0.09334676 0 21 0
1.8035574 0.93773276 -0.047262855 0 22 0
1.8311433 0.9520756 5.8919981e-05 0 23 0
1.8986 0.9871487 0.049875729 0 24 0
1.9374329 1.0073392 0.10178456 0 25 0
1.9740431 1.0263742 0.15567088 0 26 0
2.0471973 1.0644097 0.21550418 0 27 0
2.0912445 1.0873114 0.27560928 0 28 0
2.1431572 1.1143026 0.33960658 0 29 0
2.2147851 1.1515445 0.41041052 0 30 0
2.2693918 1.1799364 0.48191714 0 31 0
0.91922873 0.49477875 -0.61909986 0 0 0
0.97812456 0.52647972 -0.6242888 0 1 0
1.0358727 0.55756289 -0.62557685 0 2 0
1.1077888 0.59627205 -0.63189894 0 3 0
1.1686933 0.62905413 -0.6283955 0 4 0
1.2210588 0.65724009 -0.61746532 0 5 0
1.2757487 0.68667722 -0.60512155 0 6 0
1.327457 0.71450937 -0.58882904 0 7 0
1.3501545 0.72672641 -0.55812836 0 8 0
1.3790008 0.74225301 -0.52911276 0 9 0
1.409146 0.75847882 -0.49949712 0 10 0
1.4281297 0.7686969 -0.46509147 0 11 0
1.450864 0.78093368 -0.43125984 0 12 0
1.4891186 0.80152446 -0.40082082 0 13 0
1.5149153 0.81540966 -0.36569694 0 14 0
1.5529923 0.83590478 -0.33218846 0 15 0
1.5874859 0.85447103 -0.29629919 0 16 0
1.6277267 0.87613082 -0.25978392 0 17 0
1.6486092 0.88737088 -0.21881664 0 18 0
1.6734729 0.90075386 -0.17739256 0 19 0
1.7005329 0.91531909 -0.13501067 0 20 0
1.7421407 0.93771458 -0.092107207 0 21 0
1.7809302 0.95859325 -0.047024645 0 22 0
1.8275805 0.98370296 5.9252325e-05 0 23 0
1.8692533 1.0061336 0.049478047 0 24 0
1.8967955 1.0209582 0.10040709 0 25 0
1.9653746 1.0578712 0.15616535 0 26 0
1.9998899 1.0764493 0.21212444 0 27 0
2.0706227 1.1145214 0.27496573 0 28 0
2.1207213 1.1414874 0.33860573 0 29 0
2.1817067 1.1743128 0.40735391 0 30 0
2.2305007 1.2005764 0.47725871 0 31 0
0.91860986 0.51153517 -0.62355042 0 0 0
0.9757607 0.54336005 -0.62767971 0 1 0
1.0309234 0.57407784 -0.62748599 0 2 0
1.0911102 0.60759336 -0.62728173 0 3 0
1.1609815 0.64650178 -0.62916017 0 4 0
1.2185752 0.67857325 -0.62105733 0 5 0
1.2650852 0.70447266 -0.60478443 0 6 0
1.2971839 0.72234714 -0.5799275 0 7 0
1.3274183 0.73918337 -0.55304664 0 8 0
1.3567712 0.75552881 -0.52467906 0 9 0
1.4004273 0.77983898 -0.50031203 0 10 0
1.4123321 0.78646827 -0.46356526 0 11 0
1.4415231 0.80272347 -0.43185434 0 12 0
1.4761828 0.82202411 -0.40046492 0 13 0
1.510228 0.84098244 -0.36743358 0 14 0
1.5409822 0.8581081 -0.33221266 0 15 0
1.5626754 0.87018812 -0.29396304 0 16 0
1.5796809 0.8796578 -0.25409934 0 17 0
1.6284022 0.90678871 -0.21783502 0 18 0
1.6633271 0.92623681 -0.17770422 0 19 0
1.6901023 0.94114685 -0.13523822 0 20 0
1.7129934 0.9538939 -0.091278709 0 21 0
1.7611797 0.98072684 -0.046868995 0 22 0
1.8035725 1.0043336 5.8933994e-05 0 23 0
1.8461856 1.0280629 0.04925191 0 24 0
1.8922725 1.0537269 0.10095572 0 25 0
1.9299134 1.0746875 0.1545541 0 26 0
1.9781271 1.1015357 0.21146679 0 27 0
2.0351305 1.1332785 0.27237877 0 28 0
2.0891159 1.1633407 0.33618364 0 29 0
2.1390607 1.1911528 0.40253347 0 30 0
2.1955738 1.2226226 0.47348139 0 31 0
0.91415131 0.5263322 -0.62557369 0 0 0
0.96199638 0.5538795 -0.62386137 0 1 0
1.0189523 0.58667243 -0.62524664 0 2 0
1.0737818 0.61824119 -0.6223433 0 3 0
1.1510637 0.66273701 -0.62886173 0 4 0
1.2006216 0.69127053 -0.61688673 0 5 0
1.2579807 0.72429562 -0.60628211 0 6 0
1.3034837 0.75049442 -0.58748621 0 7 0
1.3157378 0.75754988 -0.55264121 0 8 0
1.339904 0.77146381 -0.52237296 0 9 0
1.3709402 0.78933322 -0.4937633 0 10 0
1.388876 0.79965991 -0.45957613 0 11 0
1.4283032 0.82236058 -0.43137607 0 12 0
1.4514121 0.8356657 -0.39694923 0 13 0
1.490031 0.85790098 -0.36546981 0 14 0
1.5108086 0.86986387 -0.32835826 0 15 0
1.5517974 0.89346367 -0.29429233 0 16 0
1.5749946 0.90681964 -0.25540718 0 17 0
1.5909681 0.91601658 -0.21455933 0 18 0
1.6310414 0.93908918 -0.17567298 0 19 0
1.6582527 0.95475638 -0.13376948 0 20 0
1.6901798 0.97313881 -0.090795986 0 21 0
1.7389393 1.0012126 -0.046653725 0 22 0
1.7754964 1.0222607 5.8488702e-05 0 23 0
1.8174158 1.0463963 0.048878964 0 24 0
1.8621808 1.0721701 0.10015878 0 25 0
1.9134715 1.1017013 0.15448441 0 26 0
1.9549031 1.125556 0.21068476 0 27 0
2.009485 1.1569821 0.27113509 0 28 0
2.0578244 1.184814 0.33384299 0 29 0
2.1050377 1.2119975 0.39935461 0 30 0
2.170645 1.2497716 0.4719148 0 31 0
0.8992992 0.53506255 -0.62058747 0 0 0
0.9533391 0.56721509 -0.62344837 0 1 0
1.0120832 0.60216641 -0.62625635 0 2 0
1.0697018 0.63644826 -0.62519437 0 3 0
1.1384695 0.6773634 -0.62721372 0 4 0
1.1907254 0.70845455 -0.61694902 0 5 0
1.2272675 0.73019624 -0.59645599 0 6 0
1.2644889 0.75234216 -0.57470572 0 7 0
1.2988328 0.77277595 -0.55013025 0 8 0
1.3231306 0.78723264 -0.52017337 0 9 0
1.3528692 0.80492634 -0.49135396 0 10 0
1.3795962 0.82082832 -0.46034601 0 11 0
1.4061934 0.83665305 -0.42827138 0 12 0
1.4342767 0.85336196 -0.39556292 0 13 0
1.4734079 0.87664413 -0.36443293 0 14 0
1.493152 0.88839149 -0.32725096 0 15 0
1.5244194 0.90699488 -0.29153237 0 16 0
1.5430808 0.91809797 -0.25233713 0 17 0
1.5770764 0.93832463 -0.2144752 0 18 0
1.6116501 0.95889515 -0.17504478 0 19 0
1.6446775 0.97854573 -0.13379057 0 20 0
1.6882745 1.0044849 -0.091456622 0 21 0
1.7030113 1.013253 -0.0460742 0 22 0
1.7516077 1.0421667 5.8187194e-05 0 23 0
1.7974261 1.0694276 0.048748035 0 24 0
1.8381877 1.0936798 0.099700056 0 25 0
1.8816823 1.1195581 0.15319596 0 26 0
1.9309045 1.1488442 0.20984909 0 27 0
1.9835013 1.1801381 0.26988068 0 28 0
2.033438 1.2098492 0.33266208 0 29 0
2.0831325 1.2394165 0.39852366 0 30 0
2.1374073 1.2717086 0.46859804 0 31 0
0.89950031 0.55276459 -0.626122 0 0 0
0.9503845 0.5840342 -0.62691879 0 1 0
0.99999583 0.61452156 -0.62415582 0 2 0
1.0683805 0.65654558 -0.62985003 0 3 0
1.1351111 0.6975531 -0.63079959 0 4 0
1.1743214 0.72164875 -0.61373866 0 5 0
1.2245505 0.75251573 -0.60030878 0 6 0
1.2477037 0.76674402 -0.57200629 0 7 0
1.2807474 0.78705019 -0.5471856 0 8 0
1.3152393 0.80824625 -0.52156568 0 9 0
1.3404635 0.82374716 -0.49108034 0 10 0
1.3673252 0.84025425 -0.46021742 0 11 0
1.3957018 0.85769236 -0.42877108 0 12 0
1.4200065 0.87262827 -0.3950316 0 13 0
1.4479808 0.88981909 -0.36125699 0 14 0
1.4948692 0.91863316 -0.33047524 0 15 0
1.4986809 0.92097557 -0.28910148 0 16 0
1.5354552 0.94357425 -0.25327274 0 17 0
1.5586497 0.95782775 -0.2138118 0 18 0
1.5929005 0.97887582 -0.17451225 0 19 0
1.6159275 0.99302638 -0.13259448 0 20 0
1.6632448 1.022104 -0.09088394 0 21 0
1.6927468 1.0402336 -0.046194591 0 22 0
1.7200803 1.0570308 5.7636571e-05 0 23 0
1.7736362 1.0899422 0.048520971 0 24 0
1.8075781 1.1108003 0.09889207 0 25 0
1.8669358 1.1472771 0.15331663 0 26 0
1.8995929 1.1673455 0.20824072 0 27 0
1.9631319 1.2063918 0.26943105 0 28 0
2.0064361 1.2330033 0.33109799 0 29 0
2.0484066 1.2587953 0.39528674 0 30 0
2.0952592 1.2875873 0.46335068 0 31 0
0.88960749 0.56438285 -0.6247949 0 0 0
0.93632245 0.59401971 -0.6231876 0 1 0
0.99509138 0.63130379 -0.62667042 0 2 0
1.0590483 0.67187917 -0.62995332 0 3 0
1.1101624 0.7043069 -0.62247366 0 4 0
1.1685247 0.74133301 -0.61619169 0 5 0
1.1956146 0.75851929 -0.59138548 0 6 0
1.2391407 0.78613311 -0.5731805 0 7 0
1.2599363 0.79932618 -0.54312676 0 8 0
1.2940757 0.82098478 -0.51778013 0 9 0
1.3132334 0.83313876 -0.48542359 0 10 0
1.3469909 0.85455513 -0.45744336 0 11 0
1.3693935 0.86876768 -0.42446563 0 12 0
1.3995631 0.8879078 -0.3928397 0 13 0
1.4404844 0.91386902 -0.36261305 0 14 0
1.4693147 0.93215954 -0.32774192 0 15 0
1.4864601 0.94303685 -0.28931823 0 16 0
1.5147338 0.96097422 -0.25209779 0 17 0
1.5424452 0.97855484 -0.21348843 0 18 0
1.5666921 0.99393749 -0.17318183 0 19 0
1.5974417 1.0134455 -0.13225438 0 20 0
1.6337326 1.0364691 -0.090072736 0 21 0
1.6628602 1.0549482 -0.045786381 0 22 0
1.7042966 1.0812362 5.7620367e-05 0 23 0
1.7370516 1.1020166 0.047946736 0 24 0
1.783168 1.1312736 0.098432407 0 25 0
1.8197203 1.1544631 0.15078077 0 26 0
1.879457 1.1923611 0.20788299 0 27 0
1.9392917 1.2303213 0.26854852 0 28 0
1.9741415 1.2524307 0.32869333 0 29 0
2.0165036 1.2793059 0.39262369 0 30 0
2.0654292 1.3103453 0.46085444 0 31 0
0.89243072 0.58425319 -0.6325863 0 0 0
0.93517804 0.61223888 -0.62819409 0 1 0
0.98284215 0.64344347 -0.62469238 0 2 0
1.0246232 0.67079645 -0.6151244 0 3 0
1.0955421 0.71722537 -0.61996859 0 4 0
1.1482022 0.75170076 -0.61108625 0 5 0
1.1871614 0.77720642 -0.59264606 0 6 0
1.2076759 0.79063672 -0.56380296 0 7 0
1.2514898 0.81932062 -0.54448521 0 8 0
1.2714278 0.83237356 -0.51343274 0 9 0
1.3070842 0.855717 -0.4876281 0 10 0
1.3219924 0.86547703 -0.45311436 0 11 0
1.3536354 0.88619304 -0.42346957 0 12 0
1.3861949 0.90750897 -0.39269325 0 13 0
1.4082934 0.92197621 -0.35779497 0 14 0
1.4414356 0.94367367 -0.32450292 0 15 0
1.4688187 0.96160072 -0.28853396 0 16 0
1.4883765 0.97440475 -0.25000677 0 17 0
1.5245888 0.99811214 -0.21297251 0 18 0
1.5376128 1.0066386 -0.17154256 0 19 0
1.5679021 1.0264683 -0.13101172 0 20 0
1.607118 1.052142 -0.089426525 0 21 0
1.651365 1.0811095 -0.045891248 0 22 0
1.6670276 1.0913633 5.6882651e-05 0 23 0
1.7148405 1.1226654 0.047772314 0 24 0
1.7633032 1.1543927 0.098237894 0 25 0
1.7968568 1.1763595 0.15026608 0 26 0
1.8527339 1.2129408 0.20682631 0 27 0
1.901374 1.2447844 0.2657378 0 28 0
1.954699 1.2796952 0.32847229 0 29 0
1.9948217 1.3059624 0.39200154 0 30 0
2.0465026 1.3397967 0.46086314 0 31 0
0.87620902 0.59171963 -0.62702709 0 0 0
0.91572219 0.61840361 -0.62100714 0 1 0
0.97954988 0.66150755 -0.62855357 0 2 0
1.0355452 0.69932228 -0.62762642 0 3 0
1.0893083 0.73562938 -0.62233579 0 4 0
1.1235101 0.75872648 -0.60366279 0 5 0
1.1630678 0.78544056 -0.58617055 0 6 0
1.2005694 0.81076598 -0.56584501 0 7 0
1.2379795 0.83602971 -0.54375786 0 8 0
1.2627305 0.85274452 -0.51479679 0 9 0
1.2760776 0.86175805 -0.48061305 0 10 0
1.312443 0.8863163 -0.45414305 0 11 0
1.3317975 0.89938664 -0.42062199 0 12 0
1.3663237 0.92270285 -0.39076531 0 13 0
1.3908393 0.93925875 -0.35673964 0 14 0
1.4214318 0.95991838 -0.32305965 0 15 0
1.4414105 0.97341037 -0.28585762 0 16 0
1.4600784 0.98601711 -0.24759874 0 17 0
1.4920709 1.0076222 -0.21042317 0 18 0
1.5234518 1.0288143 -0.17158799 0 19 0
1.5462791 1.04423 -0.13044049 0 20 0
1.5738817 1.0628705 -0.088414602 0 21 0
1.607005 1.0852393 -0.045085542 0 22 0
1.6605531 1.1214012 5.7203568e-05 0 23 0
1.6875237 1.1396149 0.047460873 0 24 0
1.7359542 1.172321 0.097639069 0 25 0
1.7647493 1.1917669 0.1489923 0 26 0
1.8135617 1.2247307 0.20438941 0 27 0
1.8722714 1.2643784 0.2641727 0 28 0
1.9353094 1.3069491 0.32832396 0 29 0
1.9805942 1.3375307 0.39292756 0 30 0
2.0235686 1.3665521 0.46005622 0 31 0
0.86381143 0.6015259 -0.62425262 0 0 0
0.91600472 0.63787133 -0.62732619 0 1 0
0.96229273 0.67010456 -0.62357086 0 2 0
1.0216689 0.71145195 -0.62532407 0 3 0
1.0775499 0.75036538 -0.62169051 0 4 0
1.1238666 0.78261852 -0.60981071 0 5 0
1.1473916 0.79900044 -0.58397388 0 6 0
1.1977571 0.83407319 -0.57008797 0 7 0
1.219416 0.8491556 -0.54088736 0 8 0
1.2398161 0.86336148 -0.51044071 0 9 0
1.2612183 0.87826514 -0.47970209 0 10 0
1.2902173 0.89845896 -0.45085606 0 11 0
1.3159699 0.91639215 -0.41972288 0 12 0
1.3494463 0.93970382 -0.3897453 0 13 0
1.3622754 0.94863749 -0.35285977 0 14 0
1.3874745 0.96618521 -0.31845239 0 15 0
1.4257094 0.99281055 -0.28553274 0 16 0
1.4488358 1.0089149 -0.24811573 0 17 0
1.4690549 1.0229948 -0.20922086 0 18 0
1.491244 1.0384464 -0.16961713 0 19 0
1.5272324 1.0635074 -0.13010456 0 20 0
1.5554419 1.0831513 -0.088240616 0 21 0
1.5948122 1.1105675 -0.04518481 0 22 0
1.629429 1.1346734 5.6685069e-05 0 23 0
1.6575191 1.1542342 0.047076836 0 24 0
1.7093499 1.1903272 0.097091049 0 25 0
1.749581 1.2183425 0.1491687 0 26 0
1.7893533 1.2460386 0.20365028 0 27 0
1.8490133 1.2875836 0.26346445 0 28 0
1.9093956 1.3296314 0.32712287 0 29 0
1.9569113 1.3627197 0.39205861 0 30 0
1.9930767 1.3879039 0.45759347 0 31 0
0.8615073 0.61841649 -0.6289199 0 0 0
0.91328335 0.65558296 -0.63182414 0 1 0
0.94768739 0.68027925 -0.62035269 0 2 0
1.0120869 0.72650713 -0.6257599 0 3 0
1.063059 0.76309651 -0.61956823 0 4 0
1.1006786 0.79010105 -0.60330337 0 5 0
1.1391165 0.817693 -0.58565915 0 6 0
1.1691235 0.83923298 -0.56211931 0 7 0
1.2045845 0.86468792 -0.53974319 0 8 0
1.2305578 0.88333237 -0.51178205 0 9 0
1.2596965 0.90424901 -0.48399648 0 10 0
1.2852105 0.92256373 -0.45367441 0 11 0
1.2989403 0.93241942 -0.41850516 0 12 0
1.3364676 0.95935768 -0.38992286 0 13 0
1.3550624 0.9727056 -0.35456145 0 14 0
1.3738748 0.98620969 -0.31853828 0 15 0
1.3994699 1.0045826 -0.28312838 0 16 0
1.4267447 1.0241613 -0.24681772 0 17 0
1.4538624 1.0436273 -0.20916317 0 18 0
1.4818629 1.0637269 -0.17026447 0 19 0
1.5110135 1.0846522 -0.13003214 0 20 0
1.5341501 1.1012603 -0.087917954 0 21 0
1.5634917 1.1223226 -0.044747982 0 22 0
1.6073009 1.1537702 5.648399e-05 0 23 0
1.6340493 1.172971 0.04688229 0 24 0
1.6783519 1.2047727 0.096299976 0 25 0
1.7156669 1.2315587 0.14776501 0 26 0
1.7766699 1.2753484 0.20426343 0 27 0
1.8274051 1.3117678 0.26303393 0 28 0
1.8770469 1.3474022 0.32485166 0 29 0
1.9261094 1.3826207 0.3898125 0 30 0
1.965381 1.4108111 0.45582438 0 31 0
0.85443783 0.63206607 -0.63029903 0 0 0
0.89585596 0.66270489 -0.6262657 0 1 0
0.93711549 0.6932264 -0.61986405 0 2 0
0.9986394 0.73873842 -0.62391931 0 3 0
1.0558131 0.78103232 -0.62179697 0 4 0
1.0995972 0.81342149 -0.60903001 0 5 0
1.1313236 0.83689088 -0.58775103 0 6 0
1.1374953 0.84145635 -0.55264658 0 7 0
1.1889424 0.8795141 -0.53832 0 8 0
1.2076579 0.89335877 -0.50752413 0 9 0
1.2320682 0.91141623 -0.47834456 0 10 0
1.2568623 0.92975748 -0.44831935 0 11 0
1.2774546 0.94499058 -0.41589805 0 12 0
1.3100498 0.96910268 -0.38622275 0 13 0
1.3261584 0.98101896 -0.35063675 0 14 0
1.3548177 1.0022196 -0.31741333 0 15 0
1.3829616 1.0230389 -0.28272215 0 16 0
1.4057233 1.0398767 -0.24573086 0 17 0
1.4369386 1.0629681 -0.20889591 0 18 0
1.453806 1.0754457 -0.16879216 0 19 0
1.4860839 1.099323 -0.12922765 0 20 0
1.5124834 1.1188519 -0.087585077 0 21 0
1.5526953 1.1485984 -0.044904921 0 22 0
1.5697731 1.1612316 5.5743578e-05 0 23 0
1.6134312 1.1935276 0.04677609 0 24 0
1.6480024 1.2191014 0.095550023 0 25 0
1.706275 1.2622082 0.14849693 0 26 0
1.7415531 1.288305 0.20232539 0 27 0
1.7948273 1.3277144 0.26105344 0 28 0
1.8492512 1.3679742 0.32339674 0 29 0
1.8820755 1.3922558 0.38489446 0 30 0
1.9337863 1.4305086 0.45319912 0 31 0
0.84284574 0.64235634 -0.62846589 0 0 0
0.88988495 0.67820626 -0.62881339 0 1 0
0.93358779 0.71151346 -0.62420315 0 2 0
0.99269092 0.75655758 -0.62690425 0 3 0
1.0330635 0.78732669 -0.61497301 0 4 0
1.0759972 0.82004762 -0.60239816 0 5 0
1.1140506 0.84904921 -0.58503109 0 6 0
1.1255121 0.85778439 -0.55273312 0 7 0
1.1596472 0.88379967 -0.53072929 0 8 0
1.1973968 0.91256964 -0.50864917 0 9 0
1.2159927 0.92674214 -0.47720447 0 10 0
1.2374394 0.94308728 -0.44616058 0 11 0
1.2696716 0.96765232 -0.41783062 0 12 0
1.2885656 0.98205197 -0.38399363 0 13 0
1.3195051 1.0056318 -0.35264724 0 14 0
1.3424629 1.0231286 -0.3179172 0 15 0
1.3696018 1.043812 -0.28301632 0 16 0
1.3823354 1.0535166 -0.24425347 0 17 0
1.4011233 1.0678353 -0.20589012 0 18 0
1.4325229 1.0917659 -0.16811822 0 19 0
1.4531107 1.1074564 -0.12772571 0 20 0
1.4802575 1.1281458 -0.086645141 0 21 0
1.5133616 1.1533753 -0.044240277 0 22 0
1.5500249 1.1813174 5.5637047e-05 0 23 0
1.5747405 1.2001539 0.046147685 0 24 0
1.6202818 1.2348622 0.094957873 0 25 0
1.6695404 1.2724035 0.1468699 0 26 0
1.719514 1.3104899 0.20192349 0 27 0
1.7709154 1.3496642 0.26035863 0 28 0
1.8303872 1.3949894 0.32355654 0 29 0
1.8698026 1.425029 0.3865163 0 30 0
1.9071269 1.4534749 0.45178065 0 31 0
0.82960486 0.65124387 -0.6254794 0 0 0
0.87648362 0.68804389 -0.62623858 0 1 0
0.92797619 0.7284658 -0.62735838 0 2 0
0.98245239 0.77122992 -0.6273455 0 3 0
1.0272144 0.80636829 -0.61829853 0 4 0
1.0651462 0.83614498 -0.60296184 0 5 0
1.0881482 0.85420167 -0.5777902 0 6 0
1.120054 0.87924784 -0.55617613 0 7 0
1.1465255 0.90002811 -0.53056544 0 8 0
1.1821375 0.92798364 -0.50775748 0 9 0
1.1820209 0.92789215 -0.46903664 0 10 0
1.221113 0.95857966 -0.44517544 0 11 0
1.2452239 0.97750682 -0.41434717 0 12 0
1.2711384 0.99784988 -0.38301733 0 13 0
1.2958908 1.0172806 -0.3501918 0 14 0
1.317854 1.0345218 -0.31556377 0 15 0
1.3309336 1.0447893 -0.27808759 0 16 0
1.3565382 1.0648891 -0.24236362 0 17 0
1.3878094 1.0894371 -0.206204 0 18 0
1.4175231 1.1127626 -0.16820988 0 19 0
1.4467088 1.1356735 -0.12857863 0 20 0
1.4705895 1.1544199 -0.087037519 0 21 0
1.4960847 1.1744338 -0.044222105 0 22 0
1.527935 1.1994364 5.5454708e-05 0 23 0
1.5556836 1.2212192 0.04609675 0 24 0
1.5912746 1.2491583 0.094296083 0 25 0
1.6465044 1.292514 0.1464559 0 26 0
1.7053615 1.338717 0.20249097 0 27 0
1.7506261 1.3742501 0.26024097 0 28 0
1.8042992 1.4163836 0.32249564 0 29 0
