# .PCD v0.7 - Point Cloud Data file format
VERSION 0.7
FIELDS x y z intensity ring time
SIZE 4 4 4 4 2 4
TYPE F F F F U F
COUNT 1 1 1 1 1 1
WIDTH 1200
HEIGHT 1
VIEWPOINT 0 0 0 1 0 0 0
POINTS 1200
DATA ascii
0.94929081 -3.1831183 -0.62563705 0 15 0
1.0888817 -3.6511881 -0.62619454 0 16 0
1.2719195 -4.2649417 -0.62545836 0 17 0
1.5299467 -5.130147 -0.62567228 0 18 0
2.0914769 -7.0130439 -0.68308973 0 19 0
2.6086857 -8.7473249 -0.63813537 0 20 0
0.31767222 -1.0120819 -0.6290853 0 0 0
0.33312529 -1.0613142 -0.62516147 0 1 0
0.35724524 -1.1381587 -0.63435721 0 2 0
0.37354755 -1.1900967 -0.62651247 0 3 0
0.39878854 -1.2705128 -0.6304757 0 4 0
0.41901132 -1.3349411 -0.6230098 0 5 0
0.45177078 -1.4393106 -0.63006997 0 6 0
0.47746652 -1.5211754 -0.62273729 0 7 0
0.51812732 -1.650718 -0.62976754 0 8 0
0.55526096 -1.7690231 -0.62643212 0 9 0
0.602422 -1.919275 -0.62787187 0 10 0
0.65423161 -2.0843368 -0.62646294 0 11 0
0.71934283 -2.2917767 -0.62869704 0 12 0
0.788414 -2.5118327 -0.62397683 0 13 0
0.88631368 -2.8237343 -0.62909114 0 14 0
0.9951371 -3.1704383 -0.6258803 0 15 0
1.1366544 -3.6213024 -0.62379545 0 16 0
1.3348086 -4.2526078 -0.6263873 0 17 0
1.6073699 -5.1209698 -0.62729472 0 18 0
2.1666172 -6.9026928 -0.67529273 0 19 0
2.7504144 -8.7626305 -0.64205813 0 20 0
0.33164683 -1.0059824 -0.62818033 0 0 0
0.34640193 -1.0507389 -0.62178904 0 1 0
0.36864197 -1.1181996 -0.62610966 0 2 0
0.39082548 -1.1854887 -0.62696731 0 3 0
0.41311368 -1.2530954 -0.62470281 0 4 0
0.43909141 -1.3318934 -0.62445664 0 5 0
0.47111955 -1.4290441 -0.62846333 0 6 0
0.50368613 -1.5278282 -0.62834787 0 7 0
0.53861761 -1.6337857 -0.62618482 0 8 0
0.57688946 -1.7498754 -0.62251192 0 9 0
0.62704909 -1.9020244 -0.62510061 0 10 0
0.68213975 -2.0691304 -0.62476319 0 11 0
0.7478897 -2.2685695 -0.62520331 0 12 0
0.83040118 -2.518851 -0.62860858 0 13 0
0.92466044 -2.8047671 -0.6277498 0 14 0
1.0393651 -3.1526999 -0.62525141 0 15 0
1.1961381 -3.6282387 -0.62787515 0 16 0
1.3973942 -4.2387075 -0.6272217 0 17 0
1.6793369 -5.0939231 -0.62686187 0 18 0
2.2391062 -6.7918682 -0.66751772 0 19 0
2.8965847 -8.7861938 -0.64675629 0 20 0
0.34586889 -1.0007231 -0.62792325 0 0 0
0.36499259 -1.0560549 -0.62796211 0 1 0
0.3834475 -1.1094517 -0.62422067 0 2 0
0.40867504 -1.182444 -0.62838632 0 3 0
0.43199563 -1.2499188 -0.62613767 0 4 0
0.45780018 -1.3245807 -0.62403637 0 5 0
0.49091613 -1.420397 -0.62768644 0 6 0
0.52367443 -1.5151786 -0.62616402 0 7 0
0.56270379 -1.6281047 -0.62703019 0 8 0
0.60224235 -1.7425039 -0.62289232 0 9 0
0.65340209 -1.8905275 -0.62433189 0 10 0
0.71622461 -2.0722954 -0.62874985 0 11 0
0.7804122 -2.2580132 -0.62530851 0 12 0
0.86228013 -2.4948869 -0.62564403 0 13 0
0.96629202 -2.7958305 -0.62878084 0 14 0
1.0826972 -3.1326325 -0.62428105 0 15 0
1.2445071 -3.600807 -0.6261465 0 16 0
1.4578577 -4.2181072 -0.62719691 0 17 0
1.7514795 -5.0676608 -0.62665093 0 18 0
2.309288 -6.6816015 -0.65986151 0 19 0
3.2920897 -9.5252008 -0.70455146 0 20 0
0.36156875 -0.99957675 -0.63038671 0 0 0
0.37782082 -1.0445065 -0.62424684 0 1 0
0.40464559 -1.1186651 -0.63259846 0 2 0
0.42241159 -1.1677802 -0.62374276 0 3 0
0.45048904 -1.2454019 -0.62704074 0 4 0
0.47803462 -1.321553 -0.62576944 0 5 0
0.50540715 -1.3972259 -0.62058014 0 6 0
0.54976696 -1.519861 -0.63128644 0 7 0
0.5879302 -1.6253655 -0.62915176 0 8 0
0.62742758 -1.7345581 -0.62319845 0 9 0
0.68333822 -1.8891262 -0.62703496 0 10 0
0.74339378 -2.0551531 -0.62671298 0 11 0
0.8109923 -2.242033 -0.62403381 0 12 0
0.90223879 -2.4942889 -0.62866819 0 13 0
1.001411 -2.768456 -0.62578386 0 14 0
1.1263837 -3.1139498 -0.62370694 0 15 0
1.2956773 -3.5819714 -0.62603194 0 16 0
1.5175616 -4.1953826 -0.62698352 0 17 0
1.8227205 -5.0390115 -0.62627023 0 18 0
2.3816841 -6.5842972 -0.65355164 0 19 0
3.5220404 -9.7368755 -0.72386312 0 20 0
0.37208524 -0.98437244 -0.62409288 0 0 0
0.39260846 -1.0386677 -0.62405187 0 1 0
0.41735125 -1.1041261 -0.62769061 0 2 0
0.44350746 -1.1733239 -0.63002998 0 3 0
0.46985197 -1.2430198 -0.62916303 0 4 0
0.49253619 -1.3030322 -0.62027431 0 5 0
0.52982473 -1.4016811 -0.62586308 0 6 0
0.56183463 -1.4863651 -0.62065023 0 7 0
0.60332394 -1.5961273 -0.62111324 0 8 0
0.65188229 -1.7245913 -0.62290603 0 9 0
0.71655166 -1.8956776 -0.63254899 0 10 0
0.77353698 -2.0464354 -0.62736666 0 11 0
0.85143685 -2.2525241 -0.63028133 0 12 0
0.93101829 -2.4630611 -0.62409228 0 13 0
1.0389824 -2.7486861 -0.62461263 0 14 0
1.174257 -3.1065631 -0.62552983 0 15 0
1.3490533 -3.5689962 -0.62707478 0 16 0
1.5802562 -4.1806569 -0.62809879 0 17 0
1.8889152 -4.997231 -0.62437391 0 18 0
2.440186 -6.4556489 -0.64418304 0 19 0
3.7103775 -9.8160124 -0.73361939 0 20 0
0.38633066 -0.97944117 -0.6244083 0 0 0
0.4087168 -1.0361954 -0.62601721 0 1 0
0.43465081 -1.1019444 -0.62992257 0 2 0
0.45589802 -1.1558112 -0.62406629 0 3 0
0.48367986 -1.2262448 -0.62411255 0 4 0
0.51820296 -1.3137692 -0.62885177 0 5 0
0.54754025 -1.3881463 -0.62325519 0 6 0
0.58759677 -1.4896992 -0.62549037 0 7 0
0.63193363 -1.6021037 -0.62689447 0 8 0
0.68027139 -1.7246517 -0.62638062 0 9 0
0.73527992 -1.8641115 -0.62546372 0 10 0
0.80384445 -2.0379391 -0.62822491 0 11 0
0.87592489 -2.2206802 -0.62481523 0 12 0
0.97301918 -2.4668376 -0.62851369 0 13 0
1.086779 -2.7552462 -0.6295737 0 14 0
1.2215093 -3.0968199 -0.62702429 0 15 0
1.399879 -3.5490298 -0.62702304 0 16 0
1.6393937 -4.1562576 -0.62789416 0 17 0
1.9673514 -4.987709 -0.62663835 0 18 0
2.5066888 -6.3550596 -0.63766056 0 19 0
3.8876078 -9.8560209 -0.74069244 0 20 0
0.3965973 -0.96478277 -0.61861897 0 0 0
0.42362085 -1.0305216 -0.62618852 0 1 0
0.4455328 -1.0838258 -0.62314677 0 2 0
0.47322384 -1.1511884 -0.62516356 0 3 0
0.50315154 -1.223992 -0.62656724 0 4 0
0.53152943 -1.2930256 -0.62250048 0 5 0
0.57187945 -1.3911831 -0.62822956 0 6 0
0.61057061 -1.4853052 -0.62725061 0 7 0
0.66042924 -1.6065938 -0.63228559 0 8 0
0.69774258 -1.6973641 -0.62003374 0 9 0
0.76237929 -1.8546027 -0.62587053 0 10 0
0.82705945 -2.0119469 -0.62379777 0 11 0
0.90687776 -2.2061172 -0.62430596 0 12 0
1.0049458 -2.4446824 -0.62646955 0 13 0
1.118224 -2.7202487 -0.62516999 0 14 0
1.2662716 -3.0803967 -0.62730455 0 15 0
1.4479219 -3.5222886 -0.62589592 0 16 0
1.7025766 -4.1417747 -0.6293233 0 17 0
2.0330927 -4.9458051 -0.62496573 0 18 0
2.5698724 -6.2516022 -0.63090599 0 19 0
4.0505843 -9.8536577 -0.74479568 0 20 0
0.41610843 -0.97243088 -0.62727767 0 0 0
0.44091818 -1.0304104 -0.62989128 0 1 0
0.4588443 -1.0723032 -0.62023437 0 2 0
0.48249114 -1.1275649 -0.61602193 0 3 0
0.52059621 -1.2166152 -0.62654132 0 4 0
0.54806668 -1.2808126 -0.62033397 0 5 0
0.58936131 -1.3773168 -0.62571311 0 6 0
0.63253099 -1.4782029 -0.62801039 0 7 0
0.67970383 -1.5884442 -0.62890714 0 8 0
0.73110884 -1.708576 -0.62788767 0 9 0
0.7876066 -1.8406092 -0.62488854 0 10 0
0.85350072 -1.9946014 -0.62214381 0 11 0
0.94232452 -2.2021797 -0.62694442 0 12 0
1.0332423 -2.4146514 -0.6225 0 13 0
1.1531845 -2.6949522 -0.62308598 0 14 0
1.3015881 -3.0417659 -0.62316775 0 15 0
1.4968332 -3.4980471 -0.6253314 0 16 0
1.7666327 -4.1285591 -0.63109279 0 17 0
2.1009419 -4.9098282 -0.62415558 0 18 0
2.6650262 -6.2280736 -0.63231635 0 19 0
4.2235422 -9.8702707 -0.75054389 0 20 0
0.43018875 -0.96683788 -0.62757748 0 0 0
0.45231178 -1.0165588 -0.62531739 0 1 0
0.48211721 -1.0835457 -0.63066411 0 2 0
0.50883853 -1.1436012 -0.62869763 0 3 0
0.53547156 -1.2034582 -0.62364882 0 4 0
0.57578695 -1.294066 -0.63067991 0 5 0
0.60837972 -1.3673173 -0.62506241 0 6 0
0.65642446 -1.4752966 -0.63070279 0 7 0
0.6952315 -1.5625144 -0.62251705 0 8 0
0.75375891 -1.6940533 -0.62645137 0 9 0
0.81348127 -1.8282777 -0.62459105 0 10 0
0.88696104 -1.9934216 -0.62567163 0 11 0
0.97197413 -2.1844862 -0.62580383 0 12 0
1.0759404 -2.4181473 -0.6273073 0 13 0
1.1954681 -2.6867831 -0.62508941 0 14 0
1.351235 -3.036865 -0.62606192 0 15 0
1.5519648 -3.4879999 -0.62744212 0 16 0
1.8320289 -4.1174364 -0.63333619 0 17 0
2.1837752 -4.9079771 -0.62782961 0 18 0
4.2665601 -9.5889816 -0.97963834 0 19 0
4.4119411 -9.9157209 -0.75872427 0 20 0
0.44349822 -0.95953518 -0.62689358 0 0 0
0.46896371 -1.0146313 -0.62819642 0 1 0
0.49855995 -1.0786645 -0.63191181 0 2 0
0.52472389 -1.1352718 -0.62818319 0 3 0
0.55606067 -1.2030709 -0.62750834 0 4 0
0.59382123 -1.2847681 -0.63022631 0 5 0
0.62832975 -1.3594294 -0.62550378 0 6 0
0.67193079 -1.4537628 -0.62554443 0 7 0
0.72014326 -1.5580733 -0.62479037 0 8 0
0.77458656 -1.6758647 -0.62376136 0 9 0
0.84205681 -1.8218406 -0.62644535 0 10 0
0.91281515 -1.9749306 -0.62390488 0 11 0
0.99725121 -2.157613 -0.62213081 0 12 0
1.113034 -2.4081161 -0.62877351 0 13 0
1.2311677 -2.6637056 -0.62375635 0 14 0
1.3957143 -3.019712 -0.62658 0 15 0
1.6014026 -3.4647312 -0.6273154 0 16 0
1.9114159 -4.1354637 -0.64025182 0 17 0
2.2634234 -4.8970528 -0.63051182 0 18 0
4.4233117 -9.5701017 -0.98407698 0 19 0
4.5884089 -9.9272985 -0.76455718 0 20 0
0.44987953 -0.93785846 -0.61687535 0 0 0
0.48051471 -1.0017233 -0.62439895 0 1 0
0.50642663 -1.0557415 -0.62266564 0 2 0
0.53409481 -1.1134211 -0.62025905 0 3 0
0.57059103 -1.1895044 -0.62462819 0 4 0
0.60505557 -1.2613522 -0.62292439 0 5 0
0.64672309 -1.3482159 -0.62453955 0 6 0
0.6918667 -1.4423263 -0.62482059 0 7 0
0.74288392 -1.5486813 -0.62522405 0 8 0
0.80965269 -1.6878734 -0.63247967 0 9 0
0.86661237 -1.8066165 -0.62541169 0 10 0
0.94748622 -1.9752133 -0.62821412 0 11 0
1.037468 -2.162797 -0.62784308 0 12 0
1.1399653 -2.3764722 -0.62470746 0 13 0
1.2679318 -2.6432424 -0.62315047 0 14 0
1.4376597 -2.9970722 -0.62608802 0 15 0
1.6493521 -3.4383848 -0.62675536 0 16 0
1.9848073 -4.1377039 -0.6449309 0 17 0
2.3431513 -4.8847394 -0.63317978 0 18 0
4.6085548 -9.6073999 -0.99459344 0 19 0
4.7472124 -9.8964567 -0.76733643 0 20 0
0.47064447 -0.9461773 -0.62671381 0 0 0
0.49531353 -0.99577165 -0.62504429 0 1 0
0.52874249 -1.0629767 -0.6313318 0 2 0
0.54944187 -1.1045905 -0.61965734 0 3 0
0.5883128 -1.1827362 -0.62543184 0 4 0
0.63272762 -1.2720271 -0.63260406 0 5 0
0.66611445 -1.3391474 -0.62469137 0 6 0
0.72003525 -1.4475491 -0.63148314 0 7 0
0.76260263 -1.533126 -0.62328702 0 8 0
0.82141215 -1.651356 -0.62313771 0 9 0
0.89116389 -1.7915838 -0.62455946 0 10 0
0.96781951 -1.9456913 -0.6231668 0 11 0
1.066204 -2.143482 -0.62660205 0 12 0
1.1798383 -2.3719311 -0.62788868 0 13 0
1.3166871 -2.6470501 -0.62842685 0 14 0
1.4834311 -2.98227 -0.6273672 0 15 0
1.6956315 -3.4088748 -0.62573618 0 16 0
2.0698583 -4.1612148 -0.65314645 0 17 0
2.4215147 -4.8681808 -0.63546109 0 18 0
4.7754455 -9.6004915 -1.0008519 0 19 0
4.8925638 -9.8359451 -0.76799572 0 20 0
0.48521444 -0.94143319 -0.62810731 0 0 0
0.5108459 -0.99116439 -0.62667781 0 1 0
0.53729796 -1.0424879 -0.62366664 0 2 0
0.57218504 -1.1101772 -0.62732154 0 3 0
0.60444856 -1.1727761 -0.62467611 0 4 0
0.64368987 -1.2489138 -0.62562728 0 5 0
0.68013936 -1.3196346 -0.6200667 0 6 0
0.73021007 -1.4167838 -0.62255776 0 7 0
0.78343749 -1.5200579 -0.62246943 0 8 0
0.85013342 -1.6494641 -0.62695134 0 9 0
0.91581923 -1.7769104 -0.62395 0 10 0
0.99613982 -1.9327518 -0.62352526 0 11 0
1.098296 -2.1309595 -0.62747258 0 12 0
1.2100885 -2.3478639 -0.62603867 0 13 0
1.3524317 -2.6240439 -0.62749648 0 14 0
1.5219011 -2.9528556 -0.62569785 0 15 0
1.7461927 -3.3880355 -0.62643468 0 16 0
2.1508532 -4.1731744 -0.65978825 0 17 0
2.4995558 -4.8497419 -0.63765901 0 18 0
4.9041858 -9.5153046 -0.99918669 0 19 0
5.0229449 -9.7457266 -0.76648653 0 20 0
0.49947417 -0.93595827 -0.62915993 0 0 0
0.5253728 -0.98448944 -0.62714785 0 1 0
0.55290723 -1.0360857 -0.62450719 0 2 0
0.58349067 -1.0933957 -0.62249446 0 3 0
0.62643558 -1.1738697 -0.62997001 0 4 0
0.66050148 -1.2377052 -0.62468439 0 5 0
0.70332915 -1.3179594 -0.62394595 0 6 0
0.75519532 -1.4151509 -0.62652582 0 7 0
0.80822808 -1.5145283 -0.62487835 0 8 0
0.87170386 -1.6334747 -0.6255523 0 9 0
0.94705385 -1.774672 -0.62785965 0 10 0
1.0283577 -1.9270264 -0.62636268 0 11 0
1.122575 -2.103579 -0.62407768 0 12 0
1.2356347 -2.3154399 -0.62204522 0 13 0
1.3874103 -2.5998504 -0.6263957 0 14 0
1.5639073 -2.9305859 -0.62565815 0 15 0
1.7918464 -3.357718 -0.62550718 0 16 0
2.2358887 -4.1898036 -0.66740876 0 17 0
2.5873442 -4.8483911 -0.64228499 0 18 0
4.9832263 -9.3380041 -0.98795742 0 19 0
5.1698837 -9.6877785 -0.76767033 0 20 0
0.5115605 -0.92643577 -0.62761658 0 0 0
0.53486776 -0.96864522 -0.6218679 0 1 0
0.56116843 -1.0162758 -0.61734486 0 2 0
0.60236323 -1.0908796 -0.62590641 0 3 0
0.63311064 -1.1465631 -0.62011528 0 4 0
0.68299592 -1.2369053 -0.62915027 0 5 0
0.72670609 -1.3160644 -0.62790883 0 6 0
0.77161926 -1.397402 -0.62349385 0 7 0
0.82887334 -1.5010891 -0.62416452 0 8 0
0.89961189 -1.6291966 -0.62878072 0 9 0
0.96476513 -1.7471892 -0.62295818 0 10 0
1.0570581 -1.9143317 -0.62709004 0 11 0
1.1609246 -2.1024339 -0.62860328 0 12 0
1.2774129 -2.3133941 -0.62634349 0 13 0
1.4331383 -2.5954127 -0.63020426 0 14 0
1.6102551 -2.9161713 -0.62743711 0 15 0
1.8420196 -3.3358965 -0.62628955 0 16 0
2.3264503 -4.2132006 -0.67637086 0 17 0
2.6613288 -4.819665 -0.64345992 0 18 0
5.0139241 -9.0802145 -0.96817708 0 19 0
5.2776275 -9.5577812 -0.76327693 0 20 0
0.52601957 -0.92121261 -0.62911433 0 0 0
0.55080301 -0.96461564 -0.62427843 0 1 0
0.57996917 -1.015694 -0.62197047 0 2 0
0.61859393 -1.0833372 -0.62659496 0 3 0
0.65388453 -1.1451412 -0.62434435 0 4 0
0.69225311 -1.2123357 -0.62162936 0 5 0
0.73666251 -1.2901094 -0.62049264 0 6 0
0.79870129 -1.3987573 -0.62913489 0 7 0
0.85086316 -1.4901079 -0.6245985 0 8 0
0.92358714 -1.6174687 -0.62929201 0 9 0
1.0010399 -1.7531108 -0.63011378 0 10 0
1.0788435 -1.8893675 -0.62390685 0 11 0
1.1932497 -2.0897257 -0.6298458 0 12 0
1.3100172 -2.2942197 -0.62616467 0 13 0
1.458209 -2.5537465 -0.62509114 0 14 0
1.6510873 -2.8915319 -0.62715632 0 15 0
1.8942646 -3.3174059 -0.62784415 0 16 0
2.4012415 -4.2052693 -0.68054557 0 17 0
2.737329 -4.7938561 -0.64517903 0 18 0
5.1070008 -8.9438381 -0.96133167 0 19 0
5.3732862 -9.410181 -0.75755411 0 20 0
0.53523356 -0.90695333 -0.62454432 0 0 0
0.56714427 -0.96102607 -0.62714469 0 1 0
0.59623981 -1.0103284 -0.62384695 0 2 0
0.63940847 -1.0834777 -0.63190508 0 3 0
0.66809213 -1.1320822 -0.62237436 0 4 0
0.7216453 -1.222828 -0.63224089 0 5 0
0.76333988 -1.2934796 -0.62730426 0 6 0
0.81372201 -1.3788521 -0.6253565 0 7 0
0.87225223 -1.4780315 -0.62470579 0 8 0
0.94412512 -1.5998201 -0.62761897 0 9 0
1.0206609 -1.7295099 -0.62681776 0 10 0
1.1084098 -1.8782005 -0.62539423 0 11 0
1.2092291 -2.0490389 -0.62273568 0 12 0
1.3438596 -2.2771702 -0.62669706 0 13 0
1.5012332 -2.5438399 -0.62786162 0 14 0
1.6921421 -2.8673351 -0.62709719 0 15 0
1.9331565 -3.2757339 -0.62513012 0 16 0
2.459862 -4.1682367 -0.68018079 0 17 0
2.8111656 -4.7635207 -0.64644545 0 18 0
5.1649146 -8.7519484 -0.94855535 0 19 0
5.4310651 -9.2029409 -0.74705213 0 20 0
0.54599243 -0.8956461 -0.6220758 0 0 0
0.57718343 -0.9468118 -0.62319624 0 1 0
0.62207723 -1.0204556 -0.63553303 0 2 0
0.64899337 -1.0646088 -0.6262539 0 3 0
0.68931246 -1.1307483 -0.62700093 0 4 0
0.73641217 -1.2080107 -0.62996513 0 5 0
0.78032076 -1.2800382 -0.62613815 0 6 0
0.84041834 -1.3786224 -0.63064343 0 7 0
0.89719337 -1.4717562 -0.62741697 0 8 0
0.97579825 -1.6006995 -0.63337851 0 9 0
1.0436045 -1.7119288 -0.6257956 0 10 0
1.1409416 -1.8716009 -0.62857008 0 11 0
1.2386823 -2.0319345 -0.62286198 0 12 0
1.3750366 -2.2556102 -0.62611598 0 13 0
1.540258 -2.5266397 -0.62899327 0 14 0
1.7305913 -2.8388624 -0.62622339 0 15 0
1.9887751 -3.262387 -0.62795115 0 16 0
2.5430777 -4.1716652 -0.6866098 0 17 0
2.889132 -4.7393327 -0.64870852 0 18 0
5.3280869 -8.7401943 -0.95544916 0 19 0
5.5266275 -9.0658808 -0.7422716 0 20 0
0.56567937 -0.89874136 -0.62978482 0 0 0
0.59460032 -0.94469047 -0.62733757 0 1 0
0.62813222 -0.9979654 -0.62706143 0 2 0
0.66714936 -1.0599551 -0.62906927 0 3 0
0.70306367 -1.1170151 -0.62490201 0 4 0
0.74535429 -1.1842058 -0.62305087 0 5 0
0.80165344 -1.2736529 -0.62856311 0 6 0
0.85946304 -1.3654997 -0.63020343 0 7 0
0.91859657 -1.4594501 -0.62771165 0 8 0
0.98992521 -1.5727757 -0.62787163 0 9 0
1.0692364 -1.6987841 -0.62652087 0 10 0
1.162558 -1.8470516 -0.62584978 0 11 0
1.273064 -2.0226216 -0.62552881 0 12 0
1.4096862 -2.2396846 -0.62723196 0 13 0
1.574261 -2.501158 -0.62819493 0 14 0
1.7791301 -2.8266506 -0.62908262 0 15 0
2.0333376 -3.2305307 -0.62735713 0 16 0
2.6294479 -4.1776209 -0.69371349 0 17 0
2.9618523 -4.7057385 -0.64984655 0 18 0
3.5734322 -5.6774063 -0.62616247 0 19 0
5.6591296 -8.9911261 -0.74270695 0 20 0
0.57414579 -0.88387454 -0.62506169 0 0 0
0.61158651 -0.941513 -0.63097608 0 1 0
0.64545745 -0.99365598 -0.63009423 0 2 0
0.68330932 -1.0519274 -0.63004506 0 3 0
0.72939295 -1.1228713 -0.63395387 0 4 0
0.77115119 -1.1871566 -0.63034618 0 5 0
0.82252234 -1.2662404 -0.63065058 0 6 0
0.87450087 -1.3462592 -0.62703621 0 7 0
0.93894559 -1.4454693 -0.62741464 0 8 0
1.0113301 -1.5569024 -0.62724942 0 9 0
1.094867 -1.685504 -0.62733853 0 10 0
1.1918935 -1.8348725 -0.62743932 0 11 0
1.3049532 -2.0089235 -0.6270048 0 12 0
1.4319618 -2.204448 -0.62304008 0 13 0
1.6036876 -2.4688132 -0.6257723 0 14 0
1.8107748 -2.7876155 -0.62609935 0 15 0
2.0817876 -3.2048287 -0.62808818 0 16 0
2.7012753 -4.1585054 -0.69688839 0 17 0
3.0429125 -4.6844425 -0.65285349 0 18 0
3.6516004 -5.6214929 -0.62569624 0 19 0
5.8034248 -8.9341412 -0.74478525 0 20 0
0.59190565 -0.8832798 -0.63056797 0 0 0
0.62182558 -0.92792827 -0.62777251 0 1 0
0.65236974 -0.9735083 -0.62317556 0 2 0
0.68897349 -1.0281308 -0.62163502 0 3 0
0.73395687 -1.0952579 -0.62423104 0 4 0
0.78768229 -1.1754304 -0.63004184 0 5 0
0.84045714 -1.2541845 -0.63057297 0 6 0
0.88462025 -1.3200874 -0.62068033 0 7 0
0.95975024 -1.4322013 -0.62755406 0 8 0
1.0285527 -1.5348728 -0.62424141 0 9 0
1.1123836 -1.6599708 -0.6236974 0 10 0
1.2216599 -1.8230399 -0.62930816 0 11 0
1.3292873 -1.9836484 -0.62499064 0 12 0
1.4693549 -2.1926663 -0.62559026 0 13 0
1.6329603 -2.4368088 -0.62352073 0 14 0
1.8415934 -2.7481446 -0.62309068 0 15 0
2.1346452 -3.1854556 -0.63021487 0 16 0
2.7874608 -4.1596289 -0.70369077 0 17 0
3.1263518 -4.6653442 -0.65636104 0 18 0
3.7391901 -5.5798612 -0.62695527 0 19 0
5.9053082 -8.8122826 -0.741597 0 20 0
7.5014935 -11.194213 -0.62733638 0 21 0
0.60411024 -0.87417358 -0.63017547 0 0 0
0.63445711 -0.91808677 -0.62719393 0 1 0
0.66667771 -0.96471137 -0.62358892 0 2 0
0.70673853 -1.0226811 -0.62439233 0 3 0
0.75167006 -1.0876991 -0.62599081 0 4 0
0.80358571 -1.1628232 -0.62938499 0 5 0
0.84582871 -1.2239506 -0.62139547 0 6 0
0.90901339 -1.3153815 -0.62452132 0 7 0
0.96742427 -1.3999046 -0.61940652 0 8 0
1.051941 -1.5222039 -0.62514859 0 9 0
1.1336443 -1.6404322 -0.6223892 0 10 0
1.2357343 -1.7881608 -0.62330991 0 11 0
1.364512 -1.9745076 -0.62819988 0 12 0
1.4983277 -2.1681447 -0.62464887 0 13 0
1.6747631 -2.4234543 -0.62617326 0 14 0
1.8995906 -2.7487893 -0.62933719 0 15 0
2.183023 -3.1589284 -0.63108391 0 16 0
2.8806474 -4.1684208 -0.71208042 0 17 0
3.2079964 -4.6421089 -0.65948462 0 18 0
3.8114328 -5.5153074 -0.62576771 0 19 0
5.9987674 -8.6804743 -0.73765492 0 20 0
7.66714 -11.094682 -0.62784433 0 21 0
0.61817127 -0.86770028 -0.63182276 0 0 0
0.6428597 -0.90235442 -0.62266862 0 1 0
0.68578994 -0.96261376 -0.62851369 0 2 0
0.73502797 -1.031727 -0.63627356 0 3 0
0.77051395 -1.0815371 -0.62872738 0 4 0
0.81942874 -1.1501967 -0.62883472 0 5 0
0.87767488 -1.2319543 -0.63177216 0 6 0
0.92841673 -1.3031784 -0.62497282 0 7 0
0.99883044 -1.4020152 -0.62660199 0 8 0
1.0718052 -1.5044467 -0.62409252 0 9 0
1.1676081 -1.638921 -0.62809229 0 10 0
1.2707944 -1.7837591 -0.62805164 0 11 0
1.3882568 -1.9486361 -0.62622654 0 12 0
1.5312088 -2.1492915 -0.62546748 0 13 0
1.7060032 -2.3946431 -0.62497425 0 14 0
1.9327104 -2.712862 -0.62738097 0 15 0
2.2352545 -3.1375303 -0.63313591 0 16 0
2.9714563 -4.1709046 -0.71969664 0 17 0
3.2826645 -4.6077342 -0.66120857 0 18 0
3.8948653 -5.4670539 -0.62655401 0 19 0
6.0506411 -8.4930239 -0.72901058 0 20 0
7.8178725 -10.97361 -0.6272611 0 21 0
0.62005502 -0.84450227 -0.62132984 0 0 0
0.6598419 -0.89869118 -0.62659389 0 1 0
0.70258683 -0.95690888 -0.63129032 0 2 0
0.74459028 -1.0141168 -0.63192111 0 3 0
0.78194672 -1.0649954 -0.62555361 0 4 0
0.8404808 -1.1447177 -0.63235158 0 5 0
0.88837391 -1.2099471 -0.62694311 0 6 0
0.94867224 -1.2920722 -0.6260944 0 7 0
1.0148787 -1.3822441 -0.62419403 0 8 0
1.0913785 -1.4864351 -0.6230371 0 9 0
1.1794901 -1.6064414 -0.62205118 0 10 0
1.2891154 -1.7557489 -0.62462217 0 11 0
1.4128798 -1.9243134 -0.62484515 0 12 0
1.5682485 -2.1359224 -0.6280449 0 13 0
1.7520069 -2.3861976 -0.62925059 0 14 0
1.9641817 -2.6751752 -0.62510318 0 15 0
2.2843661 -3.1112599 -0.63436788 0 16 0
3.0534225 -4.158699 -0.7250576 0 17 0
3.3724947 -4.5932689 -0.6659916 0 18 0
3.9740548 -5.4125814 -0.62676597 0 19 0
6.1121459 -8.3246174 -0.72199076 0 20 0
0.63866132 -0.84424394 -0.62780118 0 0 0
0.66911346 -0.88449854 -0.62331212 0 1 0
0.71626818 -0.94683218 -0.63134146 0 2 0
0.75049776 -0.99208015 -0.62481928 0 3 0
0.80219686 -1.060421 -0.62954658 0 4 0
0.84909809 -1.1224195 -0.62668341 0 5 0
0.89837629 -1.1875602 -0.62194234 0 6 0
0.96391368 -1.2741939 -0.62405276 0 7 0
1.0397877 -1.3744915 -0.62734967 0 8 0
1.111536 -1.4693352 -0.62247461 0 9 0
1.212257 -1.602478 -0.62717122 0 10 0
1.3217583 -1.7472272 -0.62825674 0 11 0
1.4451964 -1.9103996 -0.62697983 0 12 0
1.5885094 -2.0998445 -0.62405825 0 13 0
1.7771846 -2.3492537 -0.6261521 0 14 0
2.0043359 -2.6495237 -0.62574887 0 15 0
2.3315058 -3.0820086 -0.63514292 0 16 0
3.1427283 -4.1543608 -0.73206896 0 17 0
3.4700017 -4.5869823 -0.67221272 0 18 0
4.0426316 -5.3439393 -0.62545383 0 19 0
6.1355867 -8.1106091 -0.71097374 0 20 0
0.65307099 -0.83808696 -0.63010931 0 0 0
0.68205529 -0.87528259 -0.62363338 0 1 0
0.7246992 -0.93000758 -0.6269753 0 2 0
0.76907158 -0.9869507 -0.62845731 0 3 0
0.81089646 -1.0406246 -0.62462062 0 4 0
0.86789823 -1.1137751 -0.62872851 0 5 0
0.92036813 -1.1811099 -0.62539941 0 6 0
0.99402899 -1.2756389 -0.63166416 0 7 0
1.0601982 -1.360554 -0.62785023 0 8 0
1.1413522 -1.464699 -0.6273672 0 9 0
1.2296016 -1.5779496 -0.62439561 0 10 0
1.3430194 -1.7234988 -0.62657261 0 11 0
1.4717565 -1.8887073 -0.62671006 0 12 0
1.6217598 -2.0812068 -0.62535393 0 13 0
1.8015255 -2.3119004 -0.62300533 0 14 0
2.039386 -2.6171472 -0.62493241 0 15 0
2.3720293 -3.0440288 -0.6342479 0 16 0
3.240561 -4.158617 -0.74091667 0 17 0
3.5661292 -4.5764189 -0.67807555 0 18 0
4.122447 -5.2903423 -0.62602288 0 19 0
6.1480393 -7.8897882 -0.69925904 0 20 0
0.65500998 -0.81620735 -0.62064457 0 0 0
0.69323528 -0.86383986 -0.62248653 0 1 0
0.73287475 -0.91323453 -0.62267572 0 2 0
0.77743095 -0.96875602 -0.62389344 0 3 0
0.82094467 -1.0229784 -0.62101817 0 4 0
0.87889534 -1.0951908 -0.62527502 0 5 0
0.94294983 -1.1750089 -0.62925112 0 6 0
1.0120676 -1.2611364 -0.63159138 0 7 0
1.0771936 -1.34229 -0.62647295 0 8 0
1.1548314 -1.4390345 -0.62339061 0 9 0
1.2572105 -1.5666088 -0.62696445 0 10 0
1.3732026 -1.7111465 -0.62916315 0 11 0
1.4980745 -1.8667493 -0.62647486 0 12 0
1.6524785 -2.0591519 -0.62576991 0 13 0
1.8490412 -2.3040886 -0.62796795 0 14 0
2.0890989 -2.6032243 -0.62868363 0 15 0
2.422003 -3.0180559 -0.63599432 0 16 0
3.2980978 -4.1097565 -0.74054635 0 17 0
3.6599889 -4.560709 -0.68343991 0 18 0
4.1942158 -5.2264085 -0.62549722 0 19 0
6.2155428 -7.745182 -0.69425666 0 20 0
0.67433459 -0.81608009 -0.62782294 0 0 0
0.71621335 -0.86676174 -0.63191462 0 1 0
0.74326956 -0.8995052 -0.62050492 0 2 0
0.78521281 -0.95026493 -0.61915958 0 3 0
0.84870541 -1.0271038 -0.63083255 0 4 0
0.89014876 -1.0772585 -0.62224752 0 5 0
0.95345825 -1.1538757 -0.6251781 0 6 0
1.0253267 -1.2408509 -0.62871766 0 7 0
1.1031981 -1.3350909 -0.63041812 0 8 0
1.1712093 -1.4173981 -0.6212163 0 9 0
1.2758807 -1.5440714 -0.62518948 0 10 0
1.383072 -1.6737945 -0.62264448 0 11 0
1.5176859 -1.8367041 -0.62361825 0 12 0
1.6845533 -2.0386472 -0.62680191 0 13 0
1.8857628 -2.2821512 -0.62928098 0 14 0
2.1185389 -2.5638568 -0.62643534 0 15 0
2.4876802 -3.0105917 -0.64185917 0 16 0
3.357656 -4.063437 -0.74078399 0 17 0
3.742702 -4.5294199 -0.68670863 0 18 0
4.2789407 -5.1783762 -0.62701446 0 19 0
6.3015327 -7.6261182 -0.69159824 0 20 0
0.68756592 -0.80825055 -0.62930626 0 0 0
0.72470194 -0.85190481 -0.62858123 0 1 0
0.768803 -0.90374672 -0.63095725 0 2 0
0.80629659 -0.94782132 -0.62502307 0 3 0
0.86280411 -1.0142473 -0.63045675 0 4 0
0.90775377 -1.0670867 -0.62381327 0 5 0
0.96810895 -1.1380358 -0.62403983 0 6 0
1.0506071 -1.2350143 -0.63331491 0 7 0
1.1224592 -1.3194782 -0.63056773 0 8 0
1.2076257 -1.4195936 -0.62968981 0 9 0
1.2994704 -1.5275592 -0.62597066 0 10 0
1.418999 -1.6680681 -0.62800545 0 11 0
1.5519537 -1.8243595 -0.6269049 0 12 0
1.7125999 -2.0132029 -0.62645149 0 13 0
1.9157497 -2.2520106 -0.62846673 0 14 0
2.1548753 -2.5331085 -0.62639451 0 15 0
2.5195961 -2.9618466 -0.63909012 0 16 0
3.4164186 -4.0160832 -0.74099016 0 17 0
3.8251774 -4.4965897 -0.68996143 0 18 0
4.3503485 -5.1139412 -0.62668794 0 19 0
6.3687949 -7.4866743 -0.68714899 0 20 0
0.69657755 -0.79548877 -0.6270687 0 0 0
0.73096699 -0.83476138 -0.62358791 0 1 0
0.77640998 -0.88665706 -0.62672049 0 2 0
0.8268016 -0.94420409 -0.63037717 0 3 0
0.86907881 -0.99248451 -0.62459743 0 4 0
0.92562371 -1.0570586 -0.62563199 0 5 0
0.98027915 -1.1194749 -0.62149233 0 6 0
1.0581832 -1.2084409 -0.6273908 0 7 0
1.1351528 -1.29634 -0.62721074 0 8 0
1.2209705 -1.3943434 -0.62617743 0 9 0
1.3208894 -1.5084503 -0.62582362 0 10 0
1.4389023 -1.6432205 -0.62634051 0 11 0
1.5721225 -1.7953575 -0.6246075 0 12 0
1.7403165 -1.9874344 -0.62612021 0 13 0
1.9389594 -2.2142837 -0.62561929 0 14 0
2.1827319 -2.492671 -0.62405676 0 15 0
2.5773287 -2.9432991 -0.64298218 0 16 0
3.4753847 -3.9688754 -0.74138224 0 17 0
3.8989739 -4.4526124 -0.69170588 0 18 0
4.4248042 -5.0531087 -0.62693036 0 19 0
6.4438643 -7.3588672 -0.68381399 0 20 0
0.71767604 -0.79629457 -0.63573629 0 0 0
0.73965919 -0.82068586 -0.62091833 0 1 0
0.78677714 -0.8729654 -0.62493873 0 2 0
0.83070624 -0.92170674 -0.62323171 0 3 0
0.8859601 -0.98301345 -0.62655348 0 4 0
0.94314718 -1.0464652 -0.62728786 0 5 0
1.0054154 -1.1155547 -0.62724102 0 6 0
1.0782955 -1.1964184 -0.62909758 0 7 0
1.1480564 -1.2738214 -0.62420219 0 8 0
1.229755 -1.3644698 -0.62060291 0 9 0
1.3442477 -1.4915047 -0.62671167 0 10 0
1.4560685 -1.615575 -0.62368309 0 11 0
1.5912187 -1.7655302 -0.62209064 0 12 0
1.7710772 -1.9650915 -0.62700337 0 13 0
1.9621471 -2.1770926 -0.62298268 0 14 0
2.2254498 -2.469239 -0.62610108 0 15 0
2.606437 -2.8919618 -0.63985163 0 16 0
3.509568 -3.894027 -0.73670882 0 17 0
3.9775264 -4.4132485 -0.69436395 0 18 0
4.4946051 -4.9869704 -0.62664223 0 19 0
6.4776492 -7.1872492 -0.676413 0 20 0
0.71873391 -0.77487457 -0.62678432 0 0 0
0.76024294 -0.81962591 -0.62828499 0 1 0
0.80008066 -0.86257541 -0.62563491 0 2 0
0.85268235 -0.91928583 -0.62978286 0 3 0
0.90194684 -0.9723984 -0.62795186 0 4 0
0.95716381 -1.0319284 -0.62672234 0 5 0
1.0211252 -1.1008859 -0.62714702 0 6 0
1.081267 -1.1657254 -0.62103295 0 7 0
1.1620651 -1.2528347 -0.62200516 0 8 0
1.2707174 -1.3699739 -0.63131428 0 9 0
1.3586273 -1.4647505 -0.62357724 0 10 0
1.4813063 -1.5970119 -0.62463808 0 11 0
1.6210396 -1.7476599 -0.62390554 0 12 0
1.801374 -1.9420803 -0.62782377 0 13 0
1.9993938 -2.1555674 -0.62494844 0 14 0
2.2610407 -2.4376519 -0.62623382 0 15 0
2.6389186 -2.845046 -0.63776326 0 16 0
3.5524592 -3.8299437 -0.73412967 0 17 0
4.0167789 -4.3305321 -0.69032478 0 18 0
4.5644646 -4.9209976 -0.62649769 0 19 0
6.5115943 -7.0202188 -0.66939634 0 20 0
0.72551483 -0.76007152 -0.62314653 0 0 0
0.7714535 -0.80819827 -0.62792516 0 1 0
0.81013125 -0.84871829 -0.62393081 0 2 0
0.86540914 -0.90662903 -0.62953353 0 3 0
0.91657943 -0.96023667 -0.62850595 0 4 0
0.97618663 -1.022683 -0.62952876 0 5 0
1.0318015 -1.0809467 -0.62413758 0 6 0
1.1088431 -1.1616579 -0.62725717 0 7 0
1.1839939 -1.2403883 -0.62417567 0 8 0
1.2712567 -1.3318074 -0.62204778 0 9 0
1.3817087 -1.4475204 -0.62459755 0 10 0
1.5103472 -1.5822859 -0.62726963 0 11 0
1.6509725 -1.7296093 -0.62583369 0 12 0
1.830286 -1.9174637 -0.62827051 0 13 0
2.0344918 -2.1313958 -0.62631905 0 14 0
2.3043962 -2.4141557 -0.6286068 0 15 0
2.6740518 -2.8014185 -0.63649821 0 16 0
3.5955658 -3.7668247 -0.73182088 0 17 0
4.076663 -4.2708368 -0.69003987 0 18 0
4.6253462 -4.845654 -0.62527019 0 19 0
6.4948373 -6.8041902 -0.65759438 0 20 0
0.73652226 -0.74981737 -0.62331879 0 0 0
0.78666955 -0.80086988 -0.63091516 0 1 0
0.83324152 -0.84828258 -0.63231343 0 2 0
0.86759585 -0.88325703 -0.6218639 0 3 0
0.92585391 -0.94256669 -0.62555027 0 4 0
0.98561895 -1.0034106 -0.62628537 0 5 0
1.0526171 -1.0716181 -0.62738645 0 6 0
1.1224135 -1.1426744 -0.62561756 0 7 0
1.2160258 -1.2379766 -0.63165605 0 8 0
1.2948148 -1.3181877 -0.62427884 0 9 0
1.4035833 -1.4289197 -0.62517619 0 10 0
1.5310478 -1.5586851 -0.62653697 0 11 0
1.6799308 -1.7102555 -0.6274671 0 12 0
1.8505901 -1.8839955 -0.6259194 0 13 0
2.0634458 -2.1006935 -0.62591195 0 14 0
2.3351376 -2.3772895 -0.62764621 0 15 0
2.6925397 -2.7411432 -0.63149506 0 16 0
3.6179705 -3.6832793 -0.72557622 0 17 0
4.1189327 -4.1932845 -0.68696493 0 18 0
4.7054253 -4.7903643 -0.62676227 0 19 0
6.4223008 -6.5382314 -0.64070922 0 20 0
0.75524014 -0.74717534 -0.63004434 0 0 0
0.79019994 -0.78176183 -0.62470835 0 1 0
0.84320557 -0.83420146 -0.63074917 0 2 0
0.88253683 -0.87311274 -0.62355161 0 3 0
0.93785822 -0.92784333 -0.62462395 0 4 0
1.0003492 -0.989667 -0.62658 0 5 0
1.0702161 -1.0587877 -0.62877876 0 6 0
1.1353824 -1.1232582 -0.62382078 0 7 0
1.2173508 -1.2043514 -0.62332612 0 8 0
1.3296192 -1.3154209 -0.63191682 0 9 0
1.4305115 -1.4152358 -0.62808329 0 10 0
1.5466489 -1.530133 -0.62389481 0 11 0
1.7023332 -1.6841549 -0.62676656 0 12 0
1.8794727 -1.8594028 -0.62662238 0 13 0
2.0970569 -2.0746634 -0.62703538 0 14 0
2.3632057 -2.3379703 -0.62613165 0 15 0
2.757442 -2.7279966 -0.63749367 0 16 0
3.6481836 -3.6092267 -0.72120112 0 17 0
4.1780877 -4.1334724 -0.68689305 0 18 0
4.7724657 -4.7215033 -0.62662607 0 19 0
6.4042363 -6.3358493 -0.62979519 0 20 0
0.76262194 -0.73318022 -0.62738347 0 0 0
0.79743814 -0.76665241 -0.6216917 0 1 0
0.8529132 -0.81998575 -0.62916678 0 2 0
0.8884201 -0.85412186 -0.61900717 0 3 0
0.94150001 -0.90515262 -0.6183573 0 4 0
1.0096315 -0.97065377 -0.6236279 0 5 0
1.0814387 -1.0396887 -0.6265648 0 6 0
1.1576217 -1.1129308 -0.62722319 0 7 0
1.2437429 -1.1957272 -0.628012 0 8 0
1.3474888 -1.2954679 -0.63153225 0 9 0
1.4446377 -1.3888662 -0.62549323 0 10 0
1.57504 -1.5142342 -0.62654024 0 11 0
1.7294891 -1.6627207 -0.62793809 0 12 0
1.8988981 -1.8255895 -0.62432295 0 13 0
2.1131759 -2.031595 -0.62309641 0 14 0
2.3789694 -2.2871273 -0.621571 0 15 0
2.7940974 -2.686229 -0.63701373 0 16 0
3.6907558 -3.5482709 -0.71950322 0 17 0
4.2532372 -4.0890374 -0.68955499 0 18 0
4.8351812 -4.6485152 -0.62606031 0 19 0
6.4607692 -6.2113457 -0.62654746 0 20 0
0.77031916 -0.71965134 -0.62517762 0 0 0
0.81967503 -0.76576084 -0.63041818 0 1 0
0.85490686 -0.7986753 -0.62214082 0 2 0
0.90705353 -0.84739202 -0.62347519 0 3 0
0.96597266 -0.90243572 -0.62588274 0 4 0
1.013651 -0.94697797 -0.61767501 0 5 0
1.1017017 -1.0292373 -0.62970501 0 6 0
1.179408 -1.1018323 -0.63041776 0 7 0
1.2542185 -1.1717222 -0.62476897 0 8 0
1.3453522 -1.2568616 -0.62203574 0 9 0
1.4683139 -1.3717355 -0.62717909 0 10 0
1.595417 -1.4904784 -0.62609547 0 11 0
1.7462894 -1.631427 -0.62549543 0 12 0
1.9193996 -1.793151 -0.6225611 0 13 0
2.1572917 -2.0153956 -0.62753421 0 14 0
2.4263442 -2.2667511 -0.6254077 0 15 0
2.8194904 -2.6340382 -0.63414246 0 16 0
3.7110863 -3.4669893 -0.71371931 0 17 0
4.3101616 -4.0266604 -0.68936908 0 18 0
4.9037271 -4.5811839 -0.62638104 0 19 0
6.5603628 -6.1288543 -0.62763411 0 20 0
0.77714849 -0.70547426 -0.62246126 0 0 0
0.82499444 -0.74890745 -0.6262008 0 1 0
0.86486441 -0.78510034 -0.62114573 0 2 0
0.92492467 -0.83962137 -0.62743425 0 3 0
0.97940379 -0.88907605 -0.6262756 0 4 0
1.0451139 -0.94872594 -0.62850803 0 5 0
1.1084272 -1.0062 -0.62525308 0 6 0
1.1922451 -1.0822875 -0.62893468 0 7 0
1.2763195 -1.158608 -0.62745303 0 8 0
1.3728279 -1.2462157 -0.62642777 0 9 0
1.4769174 -1.3407053 -0.62259322 0 10 0
1.6229323 -1.4732537 -0.62855363 0 11 0
1.7725235 -1.6090485 -0.62657857 0 12 0
1.9522218 -1.7721736 -0.62491554 0 13 0
2.1877322 -1.9859636 -0.62805593 0 14 0
2.4641473 -2.2368858 -0.62683481 0 15 0
2.8319058 -2.5707269 -0.62859458 0 16 0
3.7512188 -3.4052541 -0.71199077 0 17 0
4.3554816 -3.9537873 -0.68749577 0 18 0
4.9725223 -4.5139203 -0.6268515 0 19 0
6.630589 -6.0190678 -0.62604618 0 20 0
0.78880608 -0.69572628 -0.62375849 0 0 0
0.82529593 -0.72791028 -0.61845797 0 1 0
0.8771404 -0.77363706 -0.62194574 0 2 0
0.92916346 -0.81952137 -0.62228858 0 3 0
0.98649997 -0.87009209 -0.62278575 0 4 0
1.0576062 -0.9328078 -0.62792689 0 5 0
1.1181484 -0.98620594 -0.62271029 0 6 0
1.1939781 -1.0530876 -0.62183368 0 7 0
1.2888675 -1.1367799 -0.62555856 0 8 0
1.3830928 -1.2198867 -0.62308043 0 9 0
1.5063072 -1.3285617 -0.62690204 0 10 0
1.6402038 -1.4466584 -0.62715894 0 11 0
1.7935355 -1.5818967 -0.62593812 0 12 0
1.977186 -1.7438763 -0.6248526 0 13 0
2.2138574 -1.9526204 -0.62746817 0 14 0
2.4814808 -2.188664 -0.62321115 0 15 0
2.874516 -2.5353205 -0.62993306 0 16 0
3.7582524 -3.3147752 -0.70424831 0 17 0
4.4034448 -3.8838344 -0.68622142 0 18 0
5.031054 -4.4373856 -0.62615925 0 19 0
6.7251086 -5.93154 -0.62689018 0 20 0
0.79577774 -0.6818766 -0.62148988 0 0 0
0.84018934 -0.71993148 -0.62183291 0 1 0
0.88970876 -0.76236314 -0.62305635 0 2 0
0.95001996 -0.81404185 -0.62838894 0 3 0
1.0051857 -0.86131161 -0.62673503 0 4 0
1.0662659 -0.91364938 -0.62523991 0 5 0
1.1479732 -0.98366165 -0.63141423 0 6 0
1.2137107 -1.0399901 -0.62429392 0 7 0
1.3084774 -1.1211927 -0.62722301 0 8 0
1.4078057 -1.2063038 -0.62637091 0 9 0
1.5241053 -1.3059573 -0.62646544 0 10 0
1.6526247 -1.4160815 -0.62409413 0 11 0
1.8167466 -1.5567123 -0.62619823 0 12 0
2.0032327 -1.7165065 -0.62525553 0 13 0
2.2377501 -1.9174567 -0.62639701 0 14 0
2.5198772 -2.1592026 -0.62502837 0 15 0
2.9092188 -2.4928172 -0.62965429 0 16 0
3.7806451 -3.2395146 -0.69968385 0 17 0
4.4432812 -3.8073061 -0.68386692 0 18 0
5.0856843 -4.3577609 -0.62513131 0 19 0
6.8103504 -5.8355727 -0.62698579 0 20 0
0.80345792 -0.66875517 -0.61994874 0 0 0
0.8614341 -0.71701139 -0.62989622 0 1 0
0.90778732 -0.7555933 -0.62807846 0 2 0
0.97483885 -0.81140339 -0.63705802 0 3 0
1.0142273 -0.84418815 -0.62477452 0 4 0
1.0743004 -0.89418989 -0.62238234 0 5 0
1.149214 -0.95654392 -0.62450212 0 6 0
1.2277637 -1.0219244 -0.62393463 0 7 0
1.3178672 -1.0969217 -0.62413388 0 8 0
1.4113973 -1.1747712 -0.62042391 0 9 0
1.541344 -1.2829319 -0.62593919 0 10 0
1.6790744 -1.3975712 -0.62646413 0 11 0
1.8296086 -1.5228677 -0.6230545 0 12 0
2.0304863 -1.6900675 -0.62614733 0 13 0
2.2628841 -1.883503 -0.62582195 0 14 0
2.5503628 -2.1227849 -0.62498945 0 15 0
2.9343641 -2.4424067 -0.6274659 0 16 0
3.7933879 -3.1574118 -0.69360715 0 17 0
4.4833469 -3.7316968 -0.68174273 0 18 0
5.1805515 -4.3120127 -0.62914139 0 19 0
6.891407 -5.7360363 -0.62682527 0 20 0
0.81952542 -0.66250569 -0.62496549 0 0 0
0.87214541 -0.70504379 -0.63028479 0 1 0
0.91563523 -0.74020106 -0.62611383 0 2 0
0.9675743 -0.78218865 -0.62493014 0 3 0
1.0237554 -0.82760555 -0.62328291 0 4 0
1.0916634 -0.88250238 -0.62505925 0 5 0
1.1729105 -0.9481827 -0.6299395 0 6 0
1.2468053 -1.0079194 -0.6262157 0 7 0
1.3368118 -1.0806808 -0.62571621 0 8 0
1.4415301 -1.1653353 -0.62627333 0 9 0
1.5465896 -1.2502656 -0.62073839 0 10 0
1.6964937 -1.3714484 -0.62557518 0 11 0
1.859394 -1.5031371 -0.62580675 0 12 0
2.046361 -1.6542816 -0.62367702 0 13 0
2.2877047 -1.8493842 -0.62530142 0 14 0
2.5806103 -2.0861695 -0.62502033 0 15 0
2.9706464 -2.4014754 -0.62780982 0 16 0
3.782006 -3.0573797 -0.68345433 0 17 0
4.5264487 -3.6591885 -0.68026286 0 18 0
5.2205548 -4.220305 -0.62659931 0 19 0
6.9769039 -5.6401405 -0.62719464 0 20 0
0.82573062 -0.64820254 -0.62255841 0 0 0
0.88552678 -0.69514281 -0.63269979 0 1 0
0.92361403 -0.72504151 -0.62440938 0 2 0
0.97738224 -0.76724982 -0.62410796 0 3 0
1.0506147 -0.82473773 -0.63238364 0 4 0
1.1028266 -0.86572427 -0.62429214 0 5 0
1.1691391 -0.91777992 -0.62079513 0 6 0
1.2563902 -0.98627239 -0.6238755 0 7 0
1.3526697 -1.0618523 -0.62596065 0 8 0
1.4478889 -1.1365998 -0.62190431 0 9 0
1.5715058 -1.2336397 -0.62358779 0 10 0
1.7186837 -1.3491751 -0.62657243 0 11 0
1.8840905 -1.4790202 -0.62692952 0 12 0
2.0787737 -1.6318474 -0.62637264 0 13 0
2.3137407 -1.8162977 -0.6252479 0 14 0
2.6097713 -2.0486832 -0.62491691 0 15 0
2.9993227 -2.3544829 -0.62668371 0 16 0
3.7783999 -2.9660623 -0.67506146 0 17 0
4.5402026 -3.5640814 -0.67459404 0 18 0
5.2779026 -4.1431789 -0.62630039 0 19 0
7.054563 -5.5378666 -0.62698597 0 20 0
0.83744889 -0.63824326 -0.6244418 0 0 0
0.89108425 -0.6791203 -0.62966084 0 1 0
0.92953563 -0.70842516 -0.62149382 0 2 0
0.98998028 -0.75449175 -0.62519246 0 3 0
1.0464954 -0.79756349 -0.62296891 0 4 0
1.1342051 -0.86440957 -0.63498592 0 5 0
1.2003289 -0.9148044 -0.63033915 0 6 0
1.2902236 -0.98331559 -0.63362211 0 7 0
1.3718989 -1.0455626 -0.62786931 0 8 0
1.4642839 -1.1159718 -0.62202168 0 9 0
1.5971149 -1.2172061 -0.62677217 0 10 0
1.7458335 -1.3305486 -0.62946278 0 11 0
1.8965552 -1.4454179 -0.62412894 0 12 0
2.1002641 -1.6006702 -0.62588048 0 13 0
2.3490057 -1.7902431 -0.62778878 0 14 0
2.6407731 -2.0126071 -0.62537831 0 15 0
3.0399592 -2.3168383 -0.62818116 0 16 0
3.7695322 -2.8728662 -0.66606218 0 17 0
4.5821567 -3.4921901 -0.67333174 0 18 0
5.3430471 -4.0720859 -0.6270501 0 19 0
7.1226702 -5.4283867 -0.62606931 0 20 0
0.84854531 -0.62770706 -0.62595224 0 0 0
0.90186483 -0.66714996 -0.6304664 0 1 0
0.95023048 -0.70292819 -0.62853909 0 2 0
1.0030127 -0.74197352 -0.62665159 0 3 0
1.055364 -0.78070021 -0.62153256 0 4 0
1.1228138 -0.83059579 -0.62188888 0 5 0
1.2059424 -0.89208978 -0.62651736 0 6 0
1.2900841 -0.95433319 -0.62678111 0 7 0
1.3749571 -1.0171175 -0.62254226 0 8 0
1.4984955 -1.1085044 -0.62975007 0 9 0
1.612082 -1.1925296 -0.6258831 0 10 0
1.7574211 -1.3000433 -0.62686735 0 11 0
1.9180684 -1.4188814 -0.62446129 0 12 0
2.1260889 -1.5727634 -0.62680358 0 13 0
2.3759422 -1.7575912 -0.62819999 0 14 0
2.6719897 -1.9765909 -0.62600684 0 15 0
3.0702465 -2.2711992 -0.62765777 0 16 0
3.7305751 -2.7596738 -0.65213215 0 17 0
4.609242 -3.4096632 -0.6700716 0 18 0
5.3877864 -3.9855876 -0.62554151 0 19 0
7.2034316 -5.328702 -0.62639976 0 20 0
0.86592633 -0.62158865 -0.63214594 0 0 0
0.9067198 -0.65087146 -0.62728339 0 1 0
0.94848526 -0.680852 -0.620875 0 2 0
1.0086416 -0.72403407 -0.62362975 0 3 0
1.0771574 -0.77321684 -0.62778503 0 4 0
1.1498933 -0.8254289 -0.63027894 0 5 0
1.223557 -0.87830693 -0.62907284 0 6 0
1.2969669 -0.93100291 -0.62358689 0 7 0
1.4111239 -1.0129483 -0.63228816 0 8 0
1.5020477 -1.0782162 -0.62469316 0 9 0
1.6265911 -1.1676172 -0.62496352 0 10 0
1.7677979 -1.2689799 -0.62402588 0 11 0
1.9386762 -1.3916416 -0.62462145 0 12 0
2.14486 -1.5396466 -0.62577641 0 13 0
2.4064741 -1.7274414 -0.62967062 0 14 0
2.7013698 -1.9391266 -0.62632328 0 15 0
3.1029108 -2.227365 -0.62775356 0 16 0
3.7205634 -2.6707354 -0.64363372 0 17 0
4.6218166 -3.3176825 -0.66492802 0 18 0
5.4468808 -3.9099391 -0.62584078 0 19 0
7.2849488 -5.2293611 -0.62691528 0 20 0
0.87020987 -0.60598153 -0.62887657 0 0 0
0.91167879 -0.63485897 -0.6243636 0 1 0
0.96800131 -0.67407984 -0.62727004 0 2 0
1.0298209 -0.71712869 -0.63031363 0 3 0
1.0792862 -0.75157452 -0.62269229 0 4 0
1.1595979 -0.80750048 -0.62919849 0 5 0
1.2405176 -0.86384994 -0.63137108 0 6 0
1.3099962 -0.91223228 -0.62350965 0 7 0
1.4093421 -0.98141301 -0.62513143 0 8 0
1.5165598 -1.0560755 -0.62437797 0 9 0
1.6490525 -1.1483383 -0.62721407 0 10 0
1.7963243 -1.2508929 -0.62771106 0 11 0
1.9537469 -1.3605161 -0.62313902 0 12 0
2.1698511 -1.5110029 -0.62669355 0 13 0
2.4314475 -1.6931689 -0.62979925 0 14 0
2.726896 -1.8989083 -0.62587577 0 15 0
3.1274893 -2.1778662 -0.62635529 0 16 0
3.7181418 -2.5891745 -0.63673842 0 17 0
4.634253 -3.2271202 -0.6600042 0 18 0
5.5111914 -3.8377872 -0.62685418 0 19 0
7.3652282 -5.1288691 -0.627442 0 20 0
0.88311034 -0.59638023 -0.63196576 0 0 0
0.92344803 -0.62362099 -0.62624651 0 1 0
0.97095168 -0.6557011 -0.62303632 0 2 0
1.0314547 -0.69655979 -0.62514716 0 3 0
1.0906423 -0.7365303 -0.62309796 0 4 0
1.1755782 -0.79388905 -0.63163906 0 5 0
1.2335838 -0.83306128 -0.62170964 0 6 0
1.3225063 -0.89311218 -0.62331563 0 7 0
1.4209175 -0.959571 -0.62410969 0 8 0
1.5397781 -1.0398397 -0.62774509 0 9 0
1.6520654 -1.1156694 -0.62222248 0 10 0
1.8047594 -1.2187864 -0.62449867 0 11 0
1.9795812 -1.3368467 -0.62521172 0 12 0
2.1850622 -1.4756116 -0.62492257 0 13 0
2.4443297 -1.6506997 -0.62695187 0 14 0
2.7557812 -1.8610284 -0.6263274 0 15 0
3.1566577 -2.1317475 -0.62602198 0 16 0
3.727643 -2.5173442 -0.63213027 0 17 0
4.6428795 -3.1354196 -0.65477413 0 18 0
5.5575867 -3.7531378 -0.62595689 0 19 0
7.4297266 -5.0174274 -0.62675434 0 20 0
0.8849389 -0.5793485 -0.62727582 0 0 0
0.93528897 -0.61231148 -0.6282686 0 1 0
0.98205745 -0.64292973 -0.62419361 0 2 0
1.0354165 -0.67786258 -0.62160414 0 3 0
1.1053079 -0.72361887 -0.62549514 0 4 0
1.1783636 -0.77144665 -0.62713844 0 5 0
1.2582159 -0.82372409 -0.62811732 0 6 0
1.3488072 -0.88303208 -0.62969005 0 7 0
1.4457279 -0.94648373 -0.62899232 0 8 0
1.5453184 -1.0116833 -0.62403631 0 9 0
1.6748942 -1.0965135 -0.62484539 0 10 0
1.8221735 -1.1929338 -0.62455201 0 11 0
1.9944189 -1.3056988 -0.62393141 0 12 0
2.2137184 -1.4492689 -0.62712121 0 13 0
2.4618156 -1.6116922 -0.6254558 0 14 0
2.7815328 -1.8210034 -0.62619203 0 15 0
3.1840107 -2.0844963 -0.62546539 0 16 0
3.7533112 -2.4572036 -0.63045412 0 17 0
4.6483212 -3.0431457 -0.64933217 0 18 0
5.6193161 -3.678833 -0.62691456 0 19 0
7.5114031 -4.9175372 -0.62764245 0 20 0
0.89397633 -0.56715459 -0.62786329 0 0 0
0.93710417 -0.59451562 -0.62370783 0 1 0
1.0037463 -0.63679457 -0.63212091 0 2 0
1.0595082 -0.67217094 -0.63022691 0 3 0
1.1226796 -0.71224803 -0.62949216 0 4 0
1.1862675 -0.75258929 -0.62554789 0 5 0
1.2675813 -0.80417627 -0.62698227 0 6 0
1.3559043 -0.86021 -0.62719101 0 7 0
1.4503577 -0.92013282 -0.62521255 0 8 0
1.5646842 -0.99266362 -0.62605482 0 9 0
1.6942858 -1.0748851 -0.62627578 0 10 0
1.8423777 -1.1688373 -0.62567866 0 11 0
2.0181878 -1.2803744 -0.62556994 0 12 0
2.2260756 -1.4122622 -0.62483138 0 13 0
2.4823124 -1.5748234 -0.62487239 0 14 0
2.801775 -1.7774961 -0.62495738 0 15 0
3.2134192 -2.0386505 -0.6254462 0 16 0
3.7880847 -2.4032288 -0.63045257 0 17 0
4.6422014 -2.9450955 -0.64252281 0 18 0
5.66576 -3.5944595 -0.62629199 0 19 0
7.5584493 -4.7952156 -0.62577432 0 20 0
0.90208691 -0.55435413 -0.62792248 0 0 0
0.95610398 -0.58754891 -0.63069159 0 1 0
1.0029485 -0.61633599 -0.62599868 0 2 0
1.0668021 -0.65557557 -0.62891948 0 3 0
1.1258066 -0.69183528 -0.62562895 0 4 0
1.1974715 -0.73587507 -0.62583768 0 5 0
1.2767847 -0.78461498 -0.62591547 0 6 0
1.3587754 -0.83500022 -0.62292677 0 7 0
1.468968 -0.90271622 -0.62760079 0 8 0
1.5674753 -0.96325135 -0.62159133 0 9 0
1.7130765 -1.0527267 -0.6275875 0 10 0
1.8508743 -1.1374069 -0.62297153 0 11 0
2.0405421 -1.2539624 -0.62687141 0 12 0
2.262049 -1.3900836 -0.62927938 0 13 0
2.4909358 -1.53074 -0.62146401 0 14 0
2.8249149 -1.7359782 -0.62451243 0 15 0
3.2542589 -1.9998206 -0.6277594 0 16 0
3.7908993 -2.3295989 -0.62530738 0 17 0
4.6633854 -2.8657627 -0.63971198 0 18 0
5.7278819 -3.5199213 -0.62752539 0 19 0
7.6378593 -4.6936488 -0.62672246 0 20 0
0.90483034 -0.53835344 -0.62440437 0 0 0
0.95680094 -0.56927478 -0.62571228 0 1 0
1.0132735 -0.6028747 -0.62699294 0 2 0
1.0658889 -0.63417965 -0.62296587 0 3 0
1.1351606 -0.67539465 -0.62539077 0 4 0
1.2031599 -0.7158528 -0.62339175 0 5 0
1.2890933 -0.76698112 -0.62650347 0 6 0
1.3883398 -0.82603055 -0.63099545 0 7 0
1.4778987 -0.87931609 -0.62597495 0 8 0
1.5850486 -0.94306785 -0.62314337 0 9 0
1.7275046 -1.027826 -0.62741935 0 10 0
1.8719498 -1.1137675 -0.6246354 0 11 0
2.0461462 -1.2174104 -0.62317598 0 12 0
2.2591119 -1.3441203 -0.6230464 0 13 0
2.5373554 -1.5096688 -0.62758988 0 14 0
2.8599961 -1.7016326 -0.62681925 0 15 0
3.2702653 -1.9457334 -0.62541062 0 16 0
3.8350682 -2.2817783 -0.62714154 0 17 0
4.6490388 -2.7660723 -0.63224804 0 18 0
5.7596622 -3.426868 -0.62556922 0 19 0
7.6974936 -4.5798335 -0.6261726 0 20 0
0.91118187 -0.52462256 -0.62354165 0 0 0
0.97603619 -0.56196308 -0.63296634 0 1 0
1.0264487 -0.59098864 -0.62984669 0 2 0
1.0896231 -0.62736189 -0.6315245 0 3 0
1.1512256 -0.66283023 -0.62895018 0 4 0
1.2195375 -0.70216155 -0.62660581 0 5 0
1.3031671 -0.75031215 -0.62805963 0 6 0
1.3852549 -0.797575 -0.62434083 0 7 0
1.4868065 -0.85604447 -0.62449414 0 8 0
1.6110153 -0.92755896 -0.62806803 0 9 0
1.7262725 -0.99391955 -0.62174124 0 10 0
1.8895963 -1.087955 -0.62526345 0 11 0
2.0640998 -1.1884271 -0.62339932 0 12 0
2.2890317 -1.317934 -0.62603128 0 13 0
2.5494397 -1.4678667 -0.62531805 0 14 0
2.8817551 -1.6592007 -0.62631893 0 15 0
3.2990646 -1.8994712 -0.6256547 0 16 0
3.8570619 -2.2207439 -0.625476 0 17 0
4.6634917 -2.6850543 -0.62892252 0 18 0
5.8105741 -3.345499 -0.62583387 0 19 0
7.7633734 -4.4698439 -0.62626314 0 20 0
0.91548026 -0.50979239 -0.62142605 0 0 0
0.97422791 -0.54250652 -0.62669373 0 1 0
1.0402135 -0.57925111 -0.63314056 0 2 0
1.0871099 -0.60536575 -0.62498194 0 3 0
1.1516614 -0.64131176 -0.62410933 0 4 0
1.2151548 -0.67666852 -0.61931407 0 5 0
1.3030541 -0.72561598 -0.62293577 0 6 0
1.3779585 -0.76732707 -0.61603916 0 7 0
1.506835 -0.83909297 -0.62779766 0 8 0
1.6194327 -0.9017939 -0.62625325 0 9 0
1.7563213 -0.97802138 -0.62745756 0 10 0
1.9016054 -1.058924 -0.62415791 0 11 0
2.0806882 -1.1586477 -0.62333673 0 12 0
2.304585 -1.2833263 -0.62519723 0 13 0
2.5717633 -1.4321067 -0.62570167 0 14 0
2.9042943 -1.6172792 -0.62612236 0 15 0
3.3169329 -1.8470603 -0.62396562 0 16 0
3.8952677 -2.1691105 -0.62657267 0 17 0
4.6970835 -2.615608 -0.62833935 0 18 0
5.8590565 -3.2626619 -0.62596172 0 19 0
7.8340616 -4.3624592 -0.62686414 0 20 0
0.93942022 -0.50564694 -0.63269877 0 0 0
0.98447889 -0.52989995 -0.62834448 0 1 0
1.0301648 -0.55449063 -0.6221298 0 2 0
1.0818291 -0.58229911 -0.61709112 0 3 0
1.1647789 -0.62694722 -0.6262908 0 4 0
1.2349495 -0.66471684 -0.62448955 0 5 0
1.3163955 -0.70855552 -0.62440139 0 6 0
1.4161797 -0.76226473 -0.62818444 0 7 0
1.5063374 -0.81079251 -0.62269139 0 8 0
1.6276147 -0.87607056 -0.62450415 0 9 0
1.7688538 -0.95209306 -0.627002 0 10 0
1.9268366 -1.037128 -0.62750268 0 11 0
2.1073585 -1.1342946 -0.62639856 0 12 0
2.3275588 -1.2528185 -0.62650079 0 13 0
2.5894761 -1.3937966 -0.62509328 0 14 0
2.9274521 -1.5757136 -0.6261884 0 15 0
3.3504999 -1.8034208 -0.62536013 0 16 0
3.9257934 -2.113075 -0.6265536 0 17 0
4.7295337 -2.5456917 -0.62774169 0 18 0
5.9032421 -3.1774452 -0.62575924 0 19 0
7.8922 -4.2480102 -0.62658668 0 20 0
0.9365353 -0.48693755 -0.62599754 0 0 0
0.98473841 -0.51200002 -0.62376881 0 1 0
1.0488409 -0.54532915 -0.62863028 0 2 0
1.1172867 -0.58091652 -0.63250887 0 3 0
1.1669101 -0.60671747 -0.62270343 0 4 0
1.2461071 -0.6478948 -0.62537819 0 5 0
1.3281729 -0.69056368 -0.62523526 0 6 0
1.4137398 -0.73505288 -0.62237144 0 7 0
1.5215468 -0.79110557 -0.62423384 0 8 0
1.6339676 -0.84955704 -0.62221223 0 9 0
1.7814615 -0.92624432 -0.62670738 0 10 0
1.9280102 -1.0024401 -0.62314832 0 11 0
2.1066775 -1.0953355 -0.6214723 0 12 0
2.3403141 -1.2168114 -0.62518203 0 13 0
2.612267 -1.3582093 -0.62583798 0 14 0
2.9527526 -1.5352397 -0.62683558 0 15 0
3.3732443 -1.753868 -0.62485576 0 16 0
3.9557414 -2.0567286 -0.62657064 0 17 0
4.7480712 -2.4686885 -0.62544799 0 18 0
5.934257 -3.0854285 -0.62430161 0 19 0
7.9383516 -4.1274276 -0.62549639 0 20 0
0.94360864 -0.47358447 -0.6261304 0 0 0
1.0068034 -0.50530106 -0.63309932 0 1 0
1.0538156 -0.52889585 -0.62701035 0 2 0
1.1074595 -0.55581903 -0.62237811 0 3 0
1.1801536 -0.59230316 -0.62518251 0 4 0
1.2535459 -0.62913781 -0.62452811 0 5 0
1.3455659 -0.6753214 -0.62880826 0 6 0
1.4225012 -0.71393418 -0.62166613 0 7 0
1.5395513 -0.77268004 -0.62701875 0 8 0
1.6462637 -0.82623762 -0.62232739 0 9 0
1.7859946 -0.89636666 -0.6237247 0 10 0
1.9394863 -0.97340202 -0.62229055 0 11 0
2.1447268 -1.0764095 -0.62808734 0 12 0
2.3615587 -1.1852345 -0.62626117 0 13 0
2.6267664 -1.3183388 -0.62472689 0 14 0
