# .PCD v0.7 - Point Cloud Data file format
VERSION 0.7
FIELDS x y z intensity ring time
SIZE 4 4 4 4 2 4
TYPE F F F F U F
COUNT 1 1 1 1 1 1
WIDTH 1196
HEIGHT 1
VIEWPOINT 0 0 0 1 0 0 0
POINTS 1196
DATA ascii
1.8956378 -2.2283685 -0.62186897 0 14 0
2.1570015 -2.5356078 -0.62701255 0 15 0
2.5191588 -2.9613328 -0.63897926 0 16 0
3.4099255 -4.008451 -0.73958188 0 17 0
3.8317702 -4.5043397 -0.69115061 0 18 0
4.3453097 -5.1080174 -0.62596208 0 19 0
6.3785548 -7.498147 -0.68820202 0 20 0
0.6946885 -0.79333144 -0.62536812 0 0 0
0.73279124 -0.83684462 -0.62514412 0 1 0
0.77204764 -0.8816753 -0.62319916 0 2 0
0.82024103 -0.93671197 -0.62537521 0 3 0
0.87519991 -0.9994747 -0.62899655 0 4 0
0.92564291 -1.0570805 -0.62564498 0 5 0
0.9857592 -1.125733 -0.62496656 0 6 0
1.0552149 -1.2050511 -0.62563092 0 7 0
1.139246 -1.3010143 -0.62947226 0 8 0
1.2193365 -1.3924774 -0.62533939 0 9 0
1.323599 -1.5115446 -0.62710738 0 10 0
1.4462694 -1.6516339 -0.62954742 0 11 0
1.574775 -1.7983867 -0.62566137 0 12 0
1.7494311 -1.9978433 -0.62939942 0 13 0
1.9392375 -2.2146013 -0.62570906 0 14 0
2.1970065 -2.5089724 -0.62813795 0 15 0
2.5717731 -2.9369545 -0.64159614 0 16 0
3.4666619 -3.958914 -0.7395215 0 17 0
3.8944986 -4.4475017 -0.69091195 0 18 0
4.4156876 -5.0426974 -0.6256386 0 19 0
6.4430127 -7.3578944 -0.68372357 0 20 0
0.70324582 -0.78028357 -0.62295359 0 0 0
0.74277627 -0.82414442 -0.62353504 0 1 0
0.79159534 -0.8783114 -0.62876582 0 2 0
0.83036947 -0.92133307 -0.6229791 0 3 0
0.88045257 -0.9769026 -0.62265849 0 4 0
0.94150519 -1.0446433 -0.62619579 0 5 0
1.000194 -1.1097612 -0.62398356 0 6 0
1.0761026 -1.1939853 -0.62781829 0 7 0
1.1579183 -1.2847637 -0.62956417 0 8 0
1.2332451 -1.3683422 -0.62236416 0 9 0
1.3415669 -1.4885302 -0.62546182 0 10 0
1.4564401 -1.6159872 -0.62384224 0 11 0
1.6013888 -1.7768145 -0.62606663 0 12 0
1.7679604 -1.9616333 -0.62590003 0 13 0
1.9699943 -2.1857991 -0.6254741 0 14 0
2.2233751 -2.4669368 -0.62551743 0 15 0
2.6157339 -2.902277 -0.64213389 0 16 0
3.5105314 -3.8950961 -0.73691112 0 17 0
3.9656892 -4.4001145 -0.69229752 0 18 0
4.4910388 -4.9830141 -0.62614506 0 19 0
6.4811549 -7.1911392 -0.67677903 0 20 0
0.71988243 -0.77611279 -0.62778592 0 0 0
0.75681472 -0.81592995 -0.62545186 0 1 0
0.79663926 -0.85886514 -0.62294382 0 2 0
0.85402083 -0.92072886 -0.6307714 0 3 0
0.89872843 -0.96892864 -0.62571114 0 4 0
0.95257938 -1.0269859 -0.62372053 0 5 0
1.0203457 -1.1000454 -0.62666827 0 6 0
1.0847719 -1.1695039 -0.62304598 0 7 0
1.169982 -1.2613699 -0.6262427 0 8 0
1.2568253 -1.3549967 -0.62441242 0 9 0
1.3579468 -1.4640167 -0.62326485 0 10 0
1.4770628 -1.5924369 -0.62284869 0 11 0
1.6261401 -1.7531588 -0.62586862 0 12 0
1.8051565 -1.9461583 -0.62914205 0 13 0
2.001585 -2.1579299 -0.6256333 0 14 0
2.2649853 -2.4419045 -0.62732625 0 15 0
2.6280193 -2.8332956 -0.63512921 0 16 0
3.5492465 -3.8264802 -0.73346579 0 17 0
4.025732 -4.3401842 -0.69186348 0 18 0
4.5639391 -4.9204311 -0.62642556 0 19 0
6.5006909 -7.0084634 -0.66827542 0 20 0
0.72898161 -0.76370341 -0.62612414 0 0 0
0.77080613 -0.80752003 -0.62739825 0 1 0
0.8142392 -0.85302186 -0.62709457 0 2 0
0.87030023 -0.91175312 -0.63309151 0 3 0
0.90839827 -0.95166582 -0.62289602 0 4 0
0.97504455 -1.0214864 -0.62879223 0 5 0
1.0234822 -1.0722313 -0.61910534 0 6 0
1.1096116 -1.1624631 -0.62769192 0 7 0
1.1920358 -1.2488132 -0.62841517 0 8 0
1.2851822 -1.3463962 -0.62886178 0 9 0
1.3770152 -1.4426032 -0.6224758 0 10 0
1.5046315 -1.576298 -0.62489581 0 11 0
1.6430091 -1.7212665 -0.62281495 0 12 0
1.8297585 -1.916911 -0.62808949 0 13 0
2.026937 -2.1234813 -0.62399334 0 14 0
2.2876656 -2.3966284 -0.62404293 0 15 0
2.6718726 -2.7991354 -0.63597947 0 16 0
3.5825992 -3.7532406 -0.72918171 0 17 0
4.0778432 -4.2720733 -0.69023967 0 18 0
4.6336889 -4.8543944 -0.62639797 0 19 0
6.4911528 -6.8003302 -0.65722132 0 20 0
0.74337006 -0.75678879 -0.62911409 0 0 0
0.78010374 -0.79418552 -0.62564933 0 1 0
0.81208551 -0.82674462 -0.61625898 0 2 0
0.8699733 -0.88567734 -0.623568 0 3 0
0.93189812 -0.94872004 -0.62963402 0 4 0
0.99370247 -1.0116401 -0.63142186 0 5 0
1.0461869 -1.0650718 -0.62355387 0 6 0
1.1234684 -1.1437484 -0.62620556 0 7 0
1.2094477 -1.2312797 -0.6282391 0 8 0
1.2982763 -1.3217118 -0.62594771 0 9 0
1.4070518 -1.4324508 -0.62672114 0 10 0
1.5207319 -1.5481831 -0.62231553 0 11 0
1.6786397 -1.7089411 -0.62698483 0 12 0
1.8482625 -1.8816259 -0.6251322 0 13 0
2.0567455 -2.0938723 -0.62387949 0 14 0
2.3287113 -2.3707473 -0.62591892 0 15 0
2.7080514 -2.7569351 -0.63513309 0 16 0
3.6102879 -3.675458 -0.7240355 0 17 0
4.1221919 -4.1966028 -0.68750852 0 18 0
4.7197204 -4.8049169 -0.62866634 0 19 0
6.4180903 -6.5339451 -0.64028919 0 20 0
0.75982863 -0.75171483 -0.63387215 0 0 0
0.79033297 -0.78189343 -0.6248135 0 1 0
0.84466457 -0.83564484 -0.63184053 0 2 0
0.88996214 -0.88045871 -0.62879789 0 3 0
0.94263417 -0.93256825 -0.62780476 0 4 0
1.0069408 -0.99618822 -0.63070875 0 5 0
1.0679398 -1.0565358 -0.62744135 0 6 0
1.1397473 -1.1275765 -0.62621903 0 7 0
1.2216687 -1.2086232 -0.62553698 0 8 0
1.3197166 -1.305624 -0.6272105 0 9 0
1.4293257 -1.4140626 -0.6275627 0 10 0
1.5494304 -1.5328848 -0.62501681 0 11 0
1.695617 -1.6775104 -0.62429374 0 12 0
1.8760042 -1.8559715 -0.62546599 0 13 0
2.0995831 -2.0771627 -0.62779081 0 14 0
2.3601274 -2.3349249 -0.62531608 0 15 0
2.7422688 -2.7129855 -0.63398582 0 16 0
3.6456785 -3.6067481 -0.72070587 0 17 0
4.1869602 -4.1422501 -0.68835175 0 18 0
4.776041 -4.72504 -0.62709546 0 19 0
6.405839 -6.3374343 -0.62995279 0 20 0
0.76513869 -0.73559982 -0.6294539 0 0 0
0.80392784 -0.77289146 -0.62675112 0 1 0
0.85031939 -0.81749207 -0.62725335 0 2 0
0.90330225 -0.86842948 -0.62937629 0 3 0
0.95141083 -0.91468078 -0.62486655 0 4 0
1.0068189 -0.96794975 -0.6218906 0 5 0
1.0837767 -1.0419365 -0.6279195 0 6 0
1.1416427 -1.0975685 -0.61856544 0 7 0
1.2351733 -1.1874884 -0.62368488 0 8 0
1.3302752 -1.2789187 -0.6234647 0 9 0
1.4436809 -1.3879464 -0.62507892 0 10 0
1.5713054 -1.5106437 -0.62505466 0 11 0
1.7230874 -1.6565661 -0.62561381 0 12 0
1.8961817 -1.8229779 -0.62342983 0 13 0
2.1289201 -2.0467312 -0.62773877 0 14 0
2.3899722 -2.2977054 -0.6244458 0 15 0
2.7962449 -2.6882935 -0.63750333 0 16 0
3.6753035 -3.5334151 -0.71649086 0 17 0
4.244143 -4.0802941 -0.68808061 0 18 0
4.8372731 -4.6505256 -0.62633109 0 19 0
6.4605999 -6.2111831 -0.62653106 0 20 0
0.7702055 -0.71954519 -0.62508541 0 0 0
0.80630171 -0.75326717 -0.62013263 0 1 0
0.86781889 -0.81073803 -0.63153726 0 2 0
0.91207123 -0.85207969 -0.62692416 0 3 0
0.9718377 -0.907915 -0.62968284 0 4 0
1.0224352 -0.9551844 -0.62302768 0 5 0
1.0930662 -1.0211697 -0.62476909 0 6 0
1.173254 -1.0960832 -0.62712836 0 7 0
1.2653952 -1.1821637 -0.63033646 0 8 0
1.3523552 -1.263404 -0.6252737 0 9 0
1.4640592 -1.3677605 -0.62536168 0 10 0
1.595163 -1.4902411 -0.62599581 0 11 0
1.7490045 -1.6339636 -0.626468 0 12 0
1.9320723 -1.8049901 -0.62667149 0 13 0
2.1493506 -2.007977 -0.62522429 0 14 0
2.4293723 -2.2695801 -0.62618822 0 15 0
2.8228738 -2.6371989 -0.63490343 0 16 0
3.7042572 -3.4606094 -0.71240598 0 17 0
4.2947559 -4.0122681 -0.68690509 0 18 0
4.8972178 -4.5751033 -0.62554961 0 19 0
6.5527763 -6.121767 -0.6269083 0 20 0
0.79291266 -0.7197845 -0.63508767 0 0 0
0.82435173 -0.74832404 -0.62571299 0 1 0
0.87295866 -0.79244804 -0.62695903 0 2 0
0.92407322 -0.83884847 -0.62685663 0 3 0
0.98279512 -0.89215463 -0.62844419 0 4 0
1.0335636 -0.93824089 -0.62156188 0 5 0
1.1116301 -1.0091075 -0.62705982 0 6 0
1.1826719 -1.0735973 -0.62388462 0 7 0
1.2748799 -1.1573013 -0.62674534 0 8 0
1.37402 -1.2472979 -0.62697172 0 9 0
1.486972 -1.3498327 -0.62683177 0 10 0
1.6263254 -1.4763339 -0.62986773 0 11 0
1.7744464 -1.6107941 -0.6272583 0 12 0
1.948017 -1.7683568 -0.62356961 0 13 0
2.1831062 -1.9817643 -0.62672788 0 14 0
2.4686575 -2.2409799 -0.62798208 0 15 0
2.8393095 -2.5774477 -0.63023794 0 16 0
3.7396522 -3.3947542 -0.70979542 0 17 0
4.3531637 -3.951683 -0.68712986 0 18 0
4.9701076 -4.5117278 -0.62654704 0 19 0
6.6317334 -6.0201068 -0.62615424 0 20 0
0.78560209 -0.69290036 -0.62122488 0 0 0
0.83840638 -0.7394737 -0.62828267 0 1 0
0.87948632 -0.77570617 -0.62360913 0 2 0
0.92124283 -0.81253541 -0.61698395 0 3 0
0.98668957 -0.87025934 -0.62290543 0 4 0
1.0457689 -0.92236722 -0.62089872 0 5 0
1.1146542 -0.98312396 -0.62076426 0 6 0
1.1973122 -1.0560284 -0.62357014 0 7 0
1.2866639 -1.1348364 -0.62448907 0 8 0
1.3915784 -1.227371 -0.62690324 0 9 0
1.4977701 -1.3210319 -0.62334895 0 10 0
1.6482508 -1.4537559 -0.63023585 0 11 0
1.7988976 -1.5866262 -0.62780946 0 12 0
1.9803033 -1.7466258 -0.62583774 0 13 0
2.2244031 -1.9619217 -0.6304571 0 14 0
2.4852488 -2.1919873 -0.62415743 0 15 0
2.8795156 -2.5397303 -0.63102877 0 16 0
3.7523687 -3.3095858 -0.7031458 0 17 0
4.3976908 -3.8787594 -0.68532473 0 18 0
5.0339165 -4.4399099 -0.62651545 0 19 0
6.7223601 -5.9291158 -0.62663394 0 20 0
0.80567783 -0.69035971 -0.62922174 0 0 0
0.84593368 -0.72485363 -0.62608439 0 1 0
0.88904095 -0.76179087 -0.62258863 0 2 0
0.94807059 -0.81237149 -0.62709951 0 3 0
1.0068352 -0.86272502 -0.62776351 0 4 0
1.06738 -0.91460389 -0.62589312 0 5 0
1.1365484 -0.97387218 -0.62513036 0 6 0
1.2150309 -1.0411214 -0.62497306 0 7 0
1.2999713 -1.1139041 -0.62314564 0 8 0
1.4098423 -1.2080489 -0.62727702 0 9 0
1.5192791 -1.3018219 -0.62448174 0 10 0
1.6448909 -1.4094546 -0.62117356 0 11 0
1.8158956 -1.5559831 -0.62590492 0 12 0
1.9929404 -1.7076873 -0.62204307 0 13 0
2.2390823 -1.9185984 -0.62676996 0 14 0
2.5179603 -2.1575601 -0.62455291 0 15 0
2.9102435 -2.493695 -0.62987602 0 16 0
3.7777121 -3.2370012 -0.69914103 0 17 0
4.4360676 -3.801125 -0.68275666 0 18 0
5.0933948 -4.3643675 -0.62607908 0 19 0
6.7978468 -5.8248587 -0.62583464 0 20 0
0.81445616 -0.67790949 -0.62843496 0 0 0
0.85096574 -0.70829809 -0.62224156 0 1 0
0.90204173 -0.75081104 -0.62410325 0 2 0
0.95672381 -0.79632545 -0.62521988 0 3 0
1.010771 -0.8413114 -0.62264544 0 4 0
1.0753692 -0.89507955 -0.62300158 0 5 0
1.1562104 -0.96236736 -0.62830406 0 6 0
1.2373607 -1.0299125 -0.62881178 0 7 0
1.3218745 -1.1002573 -0.62603176 0 8 0
1.4207276 -1.1825372 -0.62452537 0 9 0
1.5442109 -1.285318 -0.62710339 0 10 0
1.6710924 -1.3909274 -0.62348604 0 11 0
1.8398767 -1.5314143 -0.62655121 0 12 0
2.0308077 -1.690335 -0.62624645 0 13 0
2.2562263 -1.8779613 -0.62398064 0 14 0
2.5453191 -2.1185865 -0.62375343 0 15 0
2.9263203 -2.4357116 -0.62574589 0 16 0
3.7829671 -3.1487381 -0.69170171 0 17 0
4.4682646 -3.7191432 -0.67944932 0 18 0
5.1581454 -4.2933626 -0.62642032 0 19 0
6.8841605 -5.7300048 -0.62616616 0 20 0
0.82694596 -0.66850448 -0.63062435 0 0 0
0.86517787 -0.69941121 -0.62524945 0 1 0
0.9011814 -0.72851652 -0.61623025 0 2 0
0.97008544 -0.78421867 -0.62655205 0 3 0
1.0258414 -0.82929182 -0.62455291 0 4 0
1.0937822 -0.88421535 -0.6262725 0 5 0
1.1726466 -0.9479695 -0.62979782 0 6 0
1.2539693 -1.0137109 -0.62981385 0 7 0
1.3380545 -1.0816854 -0.62629789 0 8 0
1.4411612 -1.165037 -0.62611306 0 9 0
1.5558933 -1.2577866 -0.6244725 0 10 0
1.6933614 -1.368916 -0.62442011 0 11 0
1.8667526 -1.5090859 -0.62828344 0 12 0
2.0397577 -1.6489434 -0.62166446 0 13 0
2.2949934 -1.8552763 -0.62729365 0 14 0
2.598511 -2.1006405 -0.62935585 0 15 0
2.9662008 -2.3978817 -0.62687027 0 16 0
3.783231 -3.0583701 -0.68367577 0 17 0
4.5159907 -3.6507342 -0.67869115 0 18 0
5.2339745 -4.2311535 -0.62820995 0 19 0
6.9665003 -5.6317306 -0.62625939 0 20 0
0.8215065 -0.64488661 -0.61937368 0 0 0
0.87236422 -0.68481016 -0.62329531 0 1 0
0.92089891 -0.72291011 -0.62257379 0 2 0
0.98545837 -0.77358961 -0.62926495 0 3 0
1.0439594 -0.81951326 -0.62837768 0 4 0
1.101915 -0.86500865 -0.62377602 0 5 0
1.1855565 -0.93066764 -0.62951249 0 6 0
1.2511954 -0.98219448 -0.62129599 0 7 0
1.3594661 -1.0671875 -0.62910569 0 8 0
1.4499733 -1.1382362 -0.62279963 0 9 0
1.5695893 -1.2321352 -0.62282729 0 10 0
1.7214277 -1.3513291 -0.62757283 0 11 0
1.8758749 -1.4725709 -0.62419575 0 12 0
2.077436 -1.6307974 -0.62596959 0 13 0
2.3212771 -1.8222138 -0.62728447 0 14 0
2.6212478 -2.0576923 -0.62766498 0 15 0
3.0058012 -2.3595686 -0.62803733 0 16 0
3.7800367 -2.9673471 -0.67535388 0 17 0
4.5552025 -3.575856 -0.67682272 0 18 0
5.2796073 -4.1445174 -0.62650269 0 19 0
7.0339208 -5.5216618 -0.62515134 0 20 0
0.8312214 -0.63349712 -0.61979824 0 0 0
0.87980306 -0.67052257 -0.62168926 0 1 0
0.94806695 -0.72254843 -0.63388401 0 2 0
0.98544413 -0.75103456 -0.62232774 0 3 0
1.0462496 -0.79737616 -0.62282258 0 4 0
1.1197236 -0.85337269 -0.62687844 0 5 0
1.1961691 -0.91163403 -0.62815464 0 6 0
1.2804843 -0.97589296 -0.62883914 0 7 0
1.3653333 -1.0405588 -0.62486446 0 8 0
1.4867054 -1.1330599 -0.63154626 0 9 0
1.5859388 -1.2086884 -0.62238616 0 10 0
1.7391855 -1.325482 -0.62706584 0 11 0
1.9046056 -1.4515533 -0.62677824 0 12 0
2.0902953 -1.5930727 -0.62290978 0 13 0
2.338217 -1.7820207 -0.62490541 0 14 0
2.6413105 -2.0130167 -0.62550557 0 15 0
3.0307095 -2.3097887 -0.62626976 0 16 0
3.7598345 -2.8654752 -0.6643486 0 17 0
4.5747609 -3.4865534 -0.67224497 0 18 0
5.3425508 -4.0717077 -0.62699181 0 19 0
7.1140695 -5.4218316 -0.62531334 0 20 0
0.84579116 -0.62566972 -0.62392062 0 0 0
0.89001942 -0.65838736 -0.62218559 0 1 0
0.95144504 -0.70382667 -0.6293425 0 2 0
0.99935907 -0.73927081 -0.62436891 0 3 0
1.0650897 -0.78789473 -0.62726027 0 4 0
1.1311731 -0.83677959 -0.62651885 0 5 0
1.2050264 -0.8914122 -0.62604147 0 6 0
1.288065 -0.95283949 -0.62580007 0 7 0
1.3919517 -1.0296892 -0.63023692 0 8 0
1.4941319 -1.1052765 -0.62791628 0 9 0
1.6056392 -1.1877635 -0.62338167 0 10 0
1.7481436 -1.2931803 -0.62355804 0 11 0
1.9311699 -1.4285731 -0.62872666 0 12 0
2.123687 -1.5709866 -0.62609547 0 13 0
2.368557 -1.752128 -0.62624729 0 14 0
2.6759908 -1.9795506 -0.62694424 0 15 0
3.0698354 -2.2708952 -0.62757373 0 16 0
3.7343204 -2.7624445 -0.65278691 0 17 0
4.6092296 -3.4096541 -0.67006981 0 18 0
5.4033856 -3.9971271 -0.62735265 0 19 0
7.2018251 -5.3275137 -0.62626004 0 20 0
0.86228466 -0.61897457 -0.62948745 0 0 0
0.89011425 -0.63895142 -0.61579537 0 1 0
0.95845222 -0.68800658 -0.62739927 0 2 0
1.0151355 -0.72869563 -0.62764484 0 3 0
1.079214 -0.77469307 -0.62898362 0 4 0
1.1486479 -0.82453489 -0.62959629 0 5 0
1.2132173 -0.87088478 -0.62375683 0 6 0
1.2989324 -0.93241376 -0.62453192 0 7 0
1.3999585 -1.0049335 -0.62728524 0 8 0
1.5089051 -1.0831386 -0.62754506 0 9 0
1.6232989 -1.165254 -0.62369865 0 10 0
1.7757525 -1.27469 -0.62683386 0 11 0
1.9442793 -1.3956637 -0.62642676 0 12 0
2.1476672 -1.5416617 -0.62659544 0 13 0
2.39643 -1.7202314 -0.62704247 0 14 0
2.6950746 -1.9346077 -0.62486368 0 15 0
3.095547 -2.222079 -0.62626374 0 16 0
3.735781 -2.6816587 -0.64626622 0 17 0
4.6224666 -3.3181491 -0.66502154 0 18 0
5.4433298 -3.9073901 -0.62543279 0 19 0
7.2752318 -5.2223859 -0.62607908 0 20 0
0.86381173 -0.60152608 -0.62425286 0 0 0
0.91260231 -0.63550204 -0.62499607 0 1 0
0.96303558 -0.67062187 -0.62405223 0 2 0
1.0159461 -0.70746678 -0.62182134 0 3 0
1.0911469 -0.75983381 -0.62953526 0 4 0
1.1486025 -0.79984373 -0.62323242 0 5 0
1.2331234 -0.85870093 -0.62760782 0 6 0
1.3112828 -0.91312814 -0.62412196 0 7 0
1.4124603 -0.98358446 -0.62651461 0 8 0
1.5263397 -1.0628858 -0.62840444 0 9 0
1.6329421 -1.1371197 -0.62108654 0 10 0
1.8038476 -1.2561318 -0.63033998 0 11 0
1.9576474 -1.3632323 -0.62438309 0 12 0
2.1704743 -1.5114369 -0.62687355 0 13 0
2.4135785 -1.6807256 -0.62517083 0 14 0
2.7243764 -1.8971536 -0.62529743 0 15 0
3.1292078 -2.1790628 -0.62669945 0 16 0
3.716804 -2.588243 -0.63650936 0 17 0
4.6341262 -3.2270317 -0.65998614 0 18 0
5.5150375 -3.8404655 -0.62729168 0 19 0
7.353261 -5.1205354 -0.62642252 0 20 0
0.87957013 -0.59398949 -0.62943232 0 0 0
0.91268659 -0.61635363 -0.61894852 0 1 0
0.97874671 -0.6609652 -0.62803823 0 2 0
1.0251685 -0.69231468 -0.62133723 0 3 0
1.0939006 -0.73873067 -0.62495941 0 4 0
1.1663522 -0.78765851 -0.62668186 0 5 0
1.2396467 -0.83715564 -0.62476522 0 6 0
1.3325369 -0.89988607 -0.62804317 0 7 0
1.4236546 -0.9614194 -0.62531191 0 8 0
1.5330853 -1.03532 -0.62501657 0 9 0
1.6698461 -1.127677 -0.62891924 0 10 0
1.8055736 -1.2193362 -0.62478036 0 11 0
1.974308 -1.3332856 -0.6235463 0 12 0
2.1871881 -1.4770473 -0.6255306 0 13 0
2.4396307 -1.6475264 -0.62574661 0 14 0
2.7574704 -1.8621691 -0.62671131 0 15 0
3.1649475 -2.1373458 -0.627666 0 16 0
3.7327878 -2.5208187 -0.6330027 0 17 0
4.6649876 -3.1503499 -0.65789199 0 18 0
5.5653205 -3.7583606 -0.62682796 0 19 0
7.4182029 -5.009645 -0.62578225 0 20 0
0.89449149 -0.58560234 -0.63404703 0 0 0
0.92683661 -0.60677791 -0.62259084 0 1 0
0.99019659 -0.64825821 -0.62936687 0 2 0
1.035241 -0.67774773 -0.62149876 0 3 0
1.1086609 -0.72581404 -0.62739265 0 4 0
1.1704193 -0.76624578 -0.6229105 0 5 0
1.2609835 -0.82553589 -0.62949896 0 6 0
1.3392662 -0.87678581 -0.62523586 0 7 0
1.4342453 -0.93896639 -0.62399656 0 8 0
1.5438454 -1.0107189 -0.62344146 0 9 0
1.6830494 -1.1018525 -0.62788779 0 10 0
1.8229345 -1.193432 -0.62481284 0 11 0
1.991996 -1.3041126 -0.62317348 0 12 0
2.2171724 -1.4515301 -0.62809968 0 13 0
2.4678252 -1.6156266 -0.62698263 0 14 0
2.7780871 -1.8187476 -0.62541634 0 15 0
3.1871326 -2.0865402 -0.62607867 0 16 0
3.7608008 -2.4621072 -0.6317122 0 17 0
4.6485958 -3.0433254 -0.64937055 0 18 0
5.6147304 -3.6758308 -0.62640291 0 19 0
7.4946995 -4.9066019 -0.62624669 0 20 0
0.89669871 -0.56888169 -0.62977529 0 0 0
0.93188787 -0.59120631 -0.62023604 0 1 0
1.0024132 -0.63594878 -0.63128138 0 2 0
1.0629225 -0.67433703 -0.63225776 0 3 0
1.1194267 -0.71018434 -0.6276682 0 4 0
1.1876309 -0.75345433 -0.6262669 0 5 0
1.2678268 -0.80433202 -0.62710369 0 6 0
1.3481864 -0.85531354 -0.62362093 0 7 0
1.4431283 -0.91554642 -0.62209618 0 8 0
1.5571328 -0.9878729 -0.6230334 0 9 0
1.6905925 -1.0725422 -0.62491065 0 10 0
1.8351272 -1.1642375 -0.62321633 0 11 0
2.028074 -1.2866464 -0.62863427 0 12 0
2.2416606 -1.4221495 -0.62920588 0 13 0
2.4862154 -1.5772995 -0.62585491 0 14 0
2.8104305 -1.7829875 -0.6268881 0 15 0
3.21245 -2.0380359 -0.62525755 0 16 0
3.7821307 -2.3994515 -0.62946165 0 17 0
4.6410074 -2.9443378 -0.64235753 0 18 0
5.6640124 -3.5933509 -0.62609881 0 19 0
7.5733571 -4.8046732 -0.62700856 0 20 0
0.8912859 -0.54771668 -0.62040412 0 0 0
0.9535737 -0.58599401 -0.62902254 0 1 0
1.0013032 -0.61532497 -0.62497181 0 2 0
1.0564138 -0.64919174 -0.62279516 0 3 0
1.123525 -0.6904332 -0.62436104 0 4 0
1.1961739 -0.73507768 -0.6251595 0 5 0
1.2928338 -0.79447752 -0.63378316 0 6 0
1.3675855 -0.84041423 -0.62696576 0 7 0
1.4507254 -0.89150572 -0.61980683 0 8 0
1.5766993 -0.96891969 -0.62524915 0 9 0
1.70345 -1.0468111 -0.62406081 0 10 0
1.8571218 -1.1412461 -0.62507427 0 11 0
2.035665 -1.2509651 -0.62537307 0 12 0
2.2439048 -1.3789335 -0.62423182 0 13 0
2.5074892 -1.5409126 -0.62559396 0 14 0
2.8260424 -1.7366712 -0.62476176 0 15 0
3.2439294 -1.9934728 -0.62576681 0 16 0
3.7990501 -2.3346078 -0.62665188 0 17 0
4.6642528 -2.8662958 -0.63983095 0 18 0
5.7204103 -3.5153301 -0.62670684 0 19 0
7.6341872 -4.6913919 -0.62642115 0 20 0
0.9068523 -0.5395565 -0.62579972 0 0 0
0.94646865 -0.56312734 -0.61895537 0 1 0
1.0108049 -0.60140592 -0.62546539 0 2 0
1.0841626 -0.64505208 -0.63364607 0 3 0
1.1312946 -0.67309451 -0.62326092 0 4 0
1.2052854 -0.71711737 -0.624493 0 5 0
1.2865313 -0.76545686 -0.62525839 0 6 0
1.3705727 -0.81545955 -0.62292039 0 7 0
1.4757742 -0.87805206 -0.6250751 0 8 0
1.5906307 -0.94638902 -0.6253379 0 9 0
1.7269033 -1.0274682 -0.62720096 0 10 0
1.870241 -1.1127509 -0.62406522 0 11 0
2.0541265 -1.2221586 -0.62560642 0 12 0
2.2714734 -1.351475 -0.62645561 0 13 0
2.5371528 -1.5095482 -0.62753975 0 14 0
2.855583 -1.6990068 -0.62585205 0 15 0
3.2736466 -1.9477453 -0.62605733 0 16 0
3.8311441 -2.2794435 -0.62649983 0 17 0
4.6532693 -2.7685893 -0.63282335 0 18 0
5.7669945 -3.4312305 -0.62636566 0 19 0
7.6907287 -4.5758085 -0.62562233 0 20 0
0.91233236 -0.52528495 -0.62432897 0 0 0
0.96505451 -0.55564028 -0.62584466 0 1 0
1.0151339 -0.58447397 -0.62290365 0 2 0
1.0782504 -0.62081403 -0.62493318 0 3 0
1.1353838 -0.65370917 -0.62029529 0 4 0
1.2161285 -0.70019871 -0.62485421 0 5 0
1.3031663 -0.75031167 -0.62805927 0 6 0
1.3924466 -0.80171579 -0.62758225 0 7 0
1.4893712 -0.85752112 -0.62557137 0 8 0
1.61111 -0.9276135 -0.62810493 0 9 0
1.7393177 -1.0014304 -0.62643957 0 10 0
1.8973731 -1.0924325 -0.62783676 0 11 0
2.0588183 -1.1853863 -0.62180418 0 12 0
2.2937031 -1.3206236 -0.62730891 0 13 0
2.5552015 -1.4711841 -0.62673128 0 14 0
2.8696401 -1.6522255 -0.6236859 0 15 0
3.3095789 -1.9055247 -0.62764871 0 16 0
3.8640447 -2.2247643 -0.62660843 0 17 0
4.6496978 -2.6771123 -0.62706226 0 18 0
5.8064909 -3.3431482 -0.62539411 0 19 0
7.7583079 -4.4669271 -0.62585449 0 20 0
0.91806602 -0.51123232 -0.62318128 0 0 0
0.96711761 -0.5385471 -0.62211984 0 1 0
1.0229689 -0.56964833 -0.62264436 0 2 0
1.100377 -0.61275357 -0.63260919 0 3 0
1.1601813 -0.64605612 -0.62872648 0 4 0
1.2227496 -0.68089783 -0.62318486 0 5 0
1.3085115 -0.72865492 -0.62554473 0 6 0
1.3969834 -0.77792126 -0.6245445 0 7 0
1.4916279 -0.83062482 -0.62146187 0 8 0
1.6102159 -0.89666146 -0.62268901 0 9 0
1.7447338 -0.97156876 -0.62331784 0 10 0
1.9159069 -1.0668879 -0.62885207 0 11 0
2.0905347 -1.1641308 -0.62628657 0 12 0
2.3073184 -1.2848485 -0.62593877 0 13 0
2.5788243 -1.4360387 -0.62741959 0 14 0
2.9077325 -1.6191938 -0.62686354 0 15 0
3.3265374 -1.8524086 -0.62577236 0 16 0
3.8899558 -2.1661525 -0.62571824 0 17 0
4.6848865 -2.6088159 -0.62670773 0 18 0
5.8714981 -3.2695901 -0.6272909 0 19 0
7.822145 -4.355823 -0.62591058 0 20 0
0.93117481 -0.50120878 -0.62714553 0 0 0
0.98360604 -0.52943015 -0.62778741 0 1 0
1.0434556 -0.56164438 -0.63015622 0 2 0
1.0998548 -0.59200156 -0.62737328 0 3 0
1.1693798 -0.62942368 -0.62876463 0 4 0
1.2362007 -0.66539031 -0.62512225 0 5 0
1.3227024 -0.71195024 -0.62739295 0 6 0
1.4144835 -0.76135176 -0.62743205 0 7 0
1.5163398 -0.81617635 -0.62682623 0 8 0
1.6402495 -0.88287127 -0.62935203 0 9 0
1.7684811 -0.9518925 -0.62686998 0 10 0
1.9128771 -1.0296142 -0.62295663 0 11 0
2.1170151 -1.1394924 -0.62926894 0 12 0
2.3098481 -1.2432855 -0.62173367 0 13 0
2.5942056 -1.3963423 -0.62623501 0 14 0
2.9265406 -1.575223 -0.62599343 0 15 0
3.3481524 -1.8021572 -0.62492198 0 16 0
3.9309664 -2.1158593 -0.62737918 0 17 0
4.7242804 -2.5428641 -0.62704444 0 18 0
5.9084506 -3.1802487 -0.62631142 0 19 0
7.8855076 -4.2444081 -0.62605536 0 20 0
0.93629217 -0.48681113 -0.62583506 0 0 0
0.99330276 -0.51645291 -0.62919378 0 1 0
1.0455998 -0.54364401 -0.62668765 0 2 0
1.105446 -0.57476008 -0.62580574 0 3 0
1.1734867 -0.61013687 -0.62621295 0 4 0
1.246645 -0.64817441 -0.62564808 0 5 0
1.3187071 -0.68564206 -0.62077928 0 6 0
1.4183536 -0.73745173 -0.62440252 0 7 0
1.5257438 -0.79328769 -0.6259557 0 8 0
1.6463611 -0.8560009 -0.62693167 0 9 0
1.784011 -0.92756987 -0.62760431 0 10 0
1.9411165 -1.0092545 -0.62738436 0 11 0
2.1237471 -1.1042105 -0.62650782 0 12 0
2.3439095 -1.2186807 -0.62614244 0 13 0
2.616056 -1.3601792 -0.62674564 0 14 0
2.9397559 -1.5284822 -0.62407655 0 15 0
3.3781006 -1.7563931 -0.62575537 0 16 0
3.9437349 -2.0504861 -0.6246689 0 17 0
4.7463899 -2.4678144 -0.62522656 0 18 0
5.9293032 -3.0828528 -0.62378043 0 19 0
7.9598746 -4.138618 -0.62719226 0 20 0
0.93903881 -0.47129092 -0.62309813 0 0 0
1.0028033 -0.50329351 -0.630584 0 1 0
1.0485208 -0.52623844 -0.62385994 0 2 0
1.1219691 -0.56310117 -0.63053226 0 3 0
1.1791296 -0.59178925 -0.62464005 0 4 0
1.2511833 -0.62795204 -0.62335104 0 5 0
1.3355275 -0.67028326 -0.62411714 0 6 0
1.4231116 -0.71424055 -0.62193286 0 7 0
1.5395217 -0.7726652 -0.62700671 0 8 0
1.6528462 -0.82954121 -0.6248157 0 9 0
1.7992254 -0.90300703 -0.62834531 0 10 0
1.9587393 -0.98306483 -0.62846792 0 11 0
2.144352 -1.0762213 -0.62797767 0 12 0
2.3545523 -1.181718 -0.62440312 0 13 0
2.6270225 -1.3184673 -0.62478775 0 14 0
2.9656796 -1.4884347 -0.62499309 0 15 0
3.4094861 -1.7111752 -0.62696791 0 16 0
3.9830627 -1.9990456 -0.62630188 0 17 0
4.7769198 -2.3974717 -0.62466389 0 18 0
5.9187717 -2.970552 -0.61813611 0 19 0
7.9954162 -4.0127916 -0.62540299 0 20 0
0.9526515 -0.46117425 -0.62768638 0 0 0
1.0017813 -0.48495781 -0.62551236 0 1 0
1.0519578 -0.50924802 -0.62150437 0 2 0
1.1215141 -0.54291987 -0.62584525 0 3 0
1.1996011 -0.58072144 -0.63101679 0 4 0
1.2647396 -0.61225474 -0.62567484 0 5 0
1.3429669 -0.65012419 -0.62318122 0 6 0
1.4373047 -0.69579273 -0.62371933 0 7 0
1.5444145 -0.74764407 -0.62457711 0 8 0
1.6799455 -0.813254 -0.63059491 0 9 0
1.8052855 -0.87393051 -0.62602901 0 10 0
1.9684002 -0.95289361 -0.62712729 0 11 0
2.1712825 -1.051108 -0.63139367 0 12 0
2.3751917 -1.1498195 -0.62544793 0 13 0
2.660733 -1.2880487 -0.62835604 0 14 0
2.9990458 -1.4518244 -0.62758112 0 15 0
3.4269922 -1.6589913 -0.62575638 0 16 0
4.0082855 -1.9403929 -0.62583667 0 17 0
4.8224063 -2.3345048 -0.62617826 0 18 0
5.7714047 -2.7939107 -0.59850776 0 19 0
8.0620995 -3.9028258 -0.62618518 0 20 0
0.95835733 -0.44712088 -0.6271649 0 0 0
1.0045711 -0.4686819 -0.62300169 0 1 0
1.0656395 -0.49717328 -0.62531912 0 2 0
1.1152961 -0.52034056 -0.61815584 0 3 0
1.1957449 -0.55787385 -0.62472397 0 4 0
1.2703066 -0.59266055 -0.62416828 0 5 0
1.3613153 -0.63512057 -0.62741274 0 6 0
1.4490696 -0.67606235 -0.62456149 0 7 0
1.5641278 -0.72974265 -0.62826085 0 8 0
1.6773224 -0.78255349 -0.62534177 0 9 0
1.826193 -0.85200894 -0.62898582 0 10 0
1.9564028 -0.91275823 -0.61907911 0 11 0
2.1736403 -1.0141102 -0.62779403 0 12 0
2.3834491 -1.1119963 -0.62336725 0 13 0
2.6764989 -1.2487185 -0.62779397 0 14 0
3.0243611 -1.4110134 -0.6285879 0 15 0
3.4504125 -1.6097873 -0.62576139 0 16 0
4.0298138 -1.8801066 -0.62493223 0 17 0
4.8443265 -2.2601168 -0.62475997 0 18 0
5.6606174 -2.6409566 -0.58303905 0 19 0
8.1262569 -3.7912991 -0.62688923 0 20 0
0.97015607 -0.43582883 -0.63073915 0 0 0
1.0194162 -0.45795825 -0.62807864 0 1 0
1.0664434 -0.47908458 -0.62170333 0 2 0
1.1350967 -0.50992608 -0.62502098 0 3 0
1.2178462 -0.54710013 -0.63211489 0 4 0
1.2844516 -0.57702166 -0.62699604 0 5 0
1.366534 -0.61389601 -0.62570411 0 6 0
1.457083 -0.65457386 -0.62391323 0 7 0
1.5736477 -0.70693892 -0.62795603 0 8 0
1.6916692 -0.75995845 -0.626571 0 9 0
1.8456789 -0.82914507 -0.63154495 0 10 0
1.9888042 -0.89344203 -0.62522143 0 11 0
2.1875765 -0.98273778 -0.62769216 0 12 0
2.402792 -1.0794202 -0.6243214 0 13 0
2.6877844 -1.2074491 -0.62632316 0 14 0
3.0327199 -1.3624064 -0.62620795 0 15 0
3.470948 -1.5592742 -0.62537396 0 16 0
4.056448 -1.8223016 -0.62495363 0 17 0
4.852222 -2.1797919 -0.62169075 0 18 0
5.6261425 -2.5274646 -0.57570302 0 19 0
8.1706161 -3.6705334 -0.62619412 0 20 0
1.0116211 -0.43716559 -0.61935723 0 1 0
1.0908163 -0.47138929 -0.63191384 0 2 0
1.1460059 -0.49523911 -0.62706047 0 3 0
1.2253642 -0.52953333 -0.63201833 0 4 0
1.290687 -0.55776215 -0.62607861 0 5 0
1.3752321 -0.59429777 -0.62572777 0 6 0
1.4687835 -0.63472539 -0.62496907 0 7 0
1.5748605 -0.68056589 -0.62448877 0 8 0
1.696498 -0.73313081 -0.62440884 0 9 0
1.837558 -0.79408896 -0.62481296 0 10 0
2.0047479 -0.86633903 -0.62627125 0 11 0
2.2063282 -0.95345062 -0.62909234 0 12 0
2.4322875 -1.0510975 -0.62801182 0 13 0
2.6885874 -1.1618559 -0.62257123 0 14 0
3.0523136 -1.3190378 -0.62629122 0 15 0
3.5060182 -1.5151033 -0.62772107 0 16 0
4.0672035 -1.7576159 -0.62267095 0 17 0
4.7963905 -2.0727296 -0.61067355 0 18 0
5.5490856 -2.3980019 -0.56424809 0 19 0
6.2972474 -2.7213151 -0.4795852 0 20 0
1.0797755 -0.44838923 -0.62173611 0 2 0
1.1439689 -0.47504634 -0.62216169 0 3 0
1.2014557 -0.49891838 -0.61594039 0 4 0
1.3000485 -0.53986019 -0.62680715 0 5 0
1.3915558 -0.57785964 -0.62932718 0 6 0
1.4830588 -0.61585736 -0.6272282 0 7 0
1.5982202 -0.66367942 -0.62992036 0 8 0
1.713425 -0.71151954 -0.62682629 0 9 0
1.8503398 -0.76837498 -0.62535536 0 10 0
2.0228255 -0.8400017 -0.62809819 0 11 0
2.2019894 -0.91440159 -0.62405944 0 12 0
2.4421093 -1.0141141 -0.62673575 0 13 0
2.7353652 -1.135892 -0.62957382 0 14 0
3.0659761 -1.273182 -0.62529129 0 15 0
3.522577 -1.4627908 -0.6268729 0 16 0
4.0874186 -1.6973479 -0.62198269 0 17 0
4.7444158 -1.9701735 -0.60040426 0 18 0
5.5016499 -2.2846239 -0.55604261 0 19 0
6.1445951 -2.5516143 -0.46513042 0 20 0
1.0897139 -0.43433711 -0.62381518 0 2 0
1.1529199 -0.4595297 -0.62338871 0 3 0
1.2256792 -0.48853001 -0.62471002 0 4 0
1.3034711 -0.51953626 -0.62480789 0 5 0
1.3845825 -0.55186552 -0.62253743 0 6 0
1.4910953 -0.59431928 -0.62696505 0 7 0
1.5880409 -0.63295978 -0.62227374 0 8 0
1.7162665 -0.68406779 -0.62421983 0 9 0
1.853639 -0.73882163 -0.62283254 0 10 0
2.0375154 -0.8121109 -0.6289857 0 11 0
2.2180018 -0.884049 -0.62494725 0 12 0
2.4655225 -0.98270559 -0.62907016 0 13 0
2.7422378 -1.0929985 -0.62749058 0 14 0
3.0899544 -1.231591 -0.62652218 0 15 0
3.5443063 -1.4126861 -0.62707716 0 16 0
4.0670552 -1.6210428 -0.61529022 0 17 0
4.6688199 -1.8608936 -0.58740669 0 18 0
5.4665565 -2.1788547 -0.5492875 0 19 0
6.055829 -2.4137263 -0.45574909 0 20 0
1.0980203 -0.4195379 -0.62506855 0 2 0
1.1586146 -0.44269013 -0.62297791 0 3 0
1.2372482 -0.47273487 -0.62709355 0 4 0
1.3234537 -0.50567275 -0.63085234 0 5 0
1.3892034 -0.53079486 -0.62113547 0 6 0
1.4872502 -0.56825709 -0.62186456 0 7 0
1.6085678 -0.61461085 -0.62680578 0 8 0
1.7393484 -0.66458023 -0.62909073 0 9 0
1.8614753 -0.71124321 -0.62198126 0 10 0
2.0428627 -0.78054875 -0.62712324 0 11 0
2.2262888 -0.8506332 -0.62378776 0 12 0
2.4634442 -0.94124693 -0.62503839 0 13 0
2.7487037 -1.0502405 -0.62546623 0 14 0
3.1204832 -1.1922921 -0.62918746 0 15 0
3.5527911 -1.3574709 -0.62507665 0 16 0
4.0480742 -1.5467114 -0.609007 0 17 0
4.6171083 -1.7641312 -0.57766449 0 18 0
5.3960977 -2.0617721 -0.53918713 0 19 0
5.9791017 -2.2845294 -0.44746801 0 20 0
1.0530924 -0.38519159 -0.63019747 0 1 0
1.1089939 -0.40563881 -0.62794596 0 2 0
1.1770816 -0.43054336 -0.62952942 0 3 0
1.2406923 -0.45381036 -0.62548286 0 4 0
1.3225316 -0.48374489 -0.62704808 0 5 0
1.3963212 -0.51073503 -0.62098575 0 6 0
1.4979634 -0.5479129 -0.6230011 0 7 0
1.6163735 -0.59122401 -0.62648571 0 8 0
1.7448575 -0.63821983 -0.62771499 0 9 0
1.8773978 -0.68669933 -0.62395334 0 10 0
2.0450261 -0.74801308 -0.62443668 0 11 0
2.2402511 -0.81942087 -0.62434965 0 12 0
2.4741862 -0.90498775 -0.62441331 0 13 0
2.7692959 -1.0129306 -0.62678862 0 14 0
3.1175733 -1.1403207 -0.62524563 0 15 0
3.559473 -1.3019551 -0.62290972 0 16 0
3.9842029 -1.4573094 -0.59619874 0 17 0
4.5123868 -1.6505042 -0.56154913 0 18 0
5.3308206 -1.9498643 -0.52982152 0 19 0
5.9213872 -2.1658769 -0.4407835 0 20 0
1.0525534 -0.36800215 -0.62665868 0 1 0
1.1013842 -0.3850747 -0.62045258 0 2 0
1.1776612 -0.41174328 -0.62662321 0 3 0
1.2518511 -0.43768218 -0.62788588 0 4 0
1.3271325 -0.46400264 -0.62601644 0 5 0
1.4174807 -0.49559093 -0.627177 0 6 0
1.5202285 -0.53151441 -0.62903261 0 7 0
1.6202754 -0.56649357 -0.62479126 0 8 0
1.7501637 -0.61190617 -0.62640887 0 9 0
1.8994933 -0.66411602 -0.62807322 0 10 0
2.0613816 -0.7207166 -0.62621659 0 11 0
2.2546213 -0.78827864 -0.62514597 0 12 0
2.5106208 -0.87778324 -0.630373 0 13 0
2.7919602 -0.97614741 -0.62869161 0 14 0
3.1465321 -1.1001157 -0.62783116 0 15 0
3.5270312 -1.2331487 -0.61408061 0 16 0
3.9165354 -1.3693303 -0.58308023 0 17 0
4.4456935 -1.5543388 -0.5504244 0 18 0
5.2695928 -1.842397 -0.52106184 0 19 0
5.8822565 -2.0566013 -0.43563476 0 20 0
1.0561802 -0.35238907 -0.6257509 0 1 0
1.114417 -0.37181947 -0.62473238 0 2 0
1.1849838 -0.39536372 -0.62744415 0 3 0
1.2375846 -0.41291371 -0.6177026 0 4 0
1.3239878 -0.44174168 -0.6214869 0 5 0
1.4245282 -0.47528645 -0.62722093 0 6 0
1.5224143 -0.50794566 -0.62686449 0 7 0
1.632344 -0.54462314 -0.62637484 0 8 0
1.7688606 -0.59017116 -0.63001275 0 9 0
1.8958009 -0.63252419 -0.62379485 0 10 0
2.0711668 -0.69103408 -0.62612033 0 11 0
2.2730541 -0.75839275 -0.62718278 0 12 0
2.5079463 -0.83676332 -0.62663007 0 13 0
2.790746 -0.93111795 -0.62535304 0 14 0
3.1394534 -1.0474625 -0.62336338 0 15 0
3.4872806 -1.1635131 -0.60419834 0 16 0
3.8476479 -1.2837478 -0.57003057 0 17 0
4.3802557 -1.4614496 -0.53967726 0 18 0
5.2007804 -1.7352134 -0.51174927 0 19 0
5.8291812 -1.9448761 -0.42959839 0 20 0
1.0481967 -0.33313116 -0.61813253 0 1 0
1.1245946 -0.35741147 -0.62750572 0 2 0
1.1807835 -0.37526906 -0.62231225 0 3 0
1.2579401 -0.39979044 -0.62494218 0 4 0
1.3339206 -0.4239381 -0.62323719 0 5 0
1.4179875 -0.4506557 -0.62143725 0 6 0
1.5274594 -0.48544738 -0.62601668 0 7 0
1.6315182 -0.51851869 -0.62314624 0 8 0
1.7672187 -0.56164616 -0.62650055 0 9 0
1.9241912 -0.61153412 -0.63019168 0 10 0
2.0762615 -0.65986419 -0.62474126 0 11 0
2.2744019 -0.7228359 -0.62463593 0 12 0
2.5149047 -0.79927093 -0.62544614 0 13 0
2.8079469 -0.89240378 -0.62628102 0 14 0
3.1513517 -1.0015424 -0.62281567 0 15 0
3.4500475 -1.096472 -0.59496731 0 16 0
3.7557356 -1.1936239 -0.55382586 0 17 0
4.2806454 -1.3604473 -0.52495164 0 18 0
5.163434 -1.6410096 -0.50571144 0 19 0
5.7842798 -1.8383228 -0.4243066 0 20 0
1.0555627 -0.31891268 -0.619721 0 1 0
1.1240605 -0.33960766 -0.62443143 0 2 0
1.184231 -0.35778672 -0.62136656 0 3 0
1.2668711 -0.38275442 -0.62659329 0 4 0
1.348376 -0.40737915 -0.62720251 0 5 0
1.4271783 -0.43118733 -0.62269658 0 6 0
1.5302873 -0.46233922 -0.62439948 0 7 0
1.6482657 -0.49798357 -0.62675619 0 8 0
1.7758249 -0.53652245 -0.62676483 0 9 0
1.9177232 -0.57939363 -0.6252932 0 10 0
2.0866959 -0.63044465 -0.62510169 0 11 0
2.2965021 -0.69383246 -0.62791371 0 12 0
2.5145197 -0.75970119 -0.62258232 0 13 0
2.8251045 -0.8535369 -0.62731874 0 14 0
3.1463747 -0.95060086 -0.61907947 0 15 0
3.3789854 -1.0208786 -0.58013314 0 16 0
3.6846364 -1.1132236 -0.54093635 0 17 0
4.2070155 -1.2710478 -0.51363844 0 18 0
5.1193614 -1.5466911 -0.49917555 0 19 0
5.7687149 -1.7428775 -0.42129174 0 20 0
6.5791612 -1.9877342 -0.31996444 0 21 0
1.0689046 -0.30631924 -0.6249159 0 1 0
1.1465682 -0.32857552 -0.6342572 0 2 0
1.1959766 -0.34273466 -0.6248914 0 3 0
1.2830313 -0.36768219 -0.63191837 0 4 0
1.3567121 -0.3887971 -0.62842709 0 5 0
1.4426832 -0.41343412 -0.62681544 0 6 0
1.5336509 -0.43950298 -0.62314129 0 7 0
1.6523685 -0.47352427 -0.6256749 0 8 0
1.7823364 -0.51076955 -0.62641853 0 9 0
1.9309404 -0.55335546 -0.62695605 0 10 0
2.0918784 -0.59947598 -0.6240198 0 11 0
2.3006394 -0.65930122 -0.62640053 0 12 0
2.5425611 -0.72862947 -0.6268788 0 13 0
2.8299718 -0.81099361 -0.62575775 0 14 0
3.0990527 -0.88810492 -0.60720503 0 15 0
3.3267331 -0.95335197 -0.56876093 0 16 0
3.5801823 -1.0259837 -0.52339208 0 17 0
4.0897751 -1.1720194 -0.4972254 0 18 0
5.0738277 -1.4540223 -0.49265587 0 19 0
5.7216282 -1.6396644 -0.41609639 0 20 0
6.5029716 -1.8635764 -0.31492963 0 21 0
1.0805926 -0.29299983 -0.62923276 0 1 0
1.1345665 -0.30763474 -0.62511826 0 2 0
1.2023168 -0.32600501 -0.6257019 0 3 0
1.2700982 -0.34438378 -0.62305695 0 4 0
1.3586378 -0.36839107 -0.62681246 0 5 0
1.4395938 -0.39034209 -0.62298185 0 6 0
1.5433848 -0.41848472 -0.6245985 0 7 0
1.6659553 -0.4517194 -0.62830698 0 8 0
1.7799654 -0.48263296 -0.62309349 0 9 0
1.9235638 -0.52156931 -0.62207329 0 10 0
2.112875 -0.57290047 -0.62777275 0 11 0
2.3084316 -0.62592518 -0.62601864 0 12 0
2.5410964 -0.68901157 -0.62402219 0 13 0
2.8347845 -0.76864439 -0.62432528 0 14 0
3.0815399 -0.83555138 -0.60136884 0 15 0
3.2616632 -0.88439137 -0.55541503 0 16 0
3.5082448 -0.95125133 -0.51083261 0 17 0
3.9760454 -1.0780942 -0.48147294 0 18 0
5.0235105 -1.3621117 -0.48582736 0 19 0
5.6833134 -1.5410155 -0.41166374 0 20 0
6.4552908 -1.7503351 -0.31137529 0 21 0
1.0840396 -0.27734175 -0.62886393 0 1 0
1.1432024 -0.29247802 -0.6275056 0 2 0
1.2058829 -0.30851427 -0.62519562 0 3 0
1.2823423 -0.32807571 -0.62669557 0 4 0
1.3605484 -0.34808403 -0.62533122 0 5 0
1.4578321 -0.37297317 -0.62849975 0 6 0
1.5457349 -0.39546233 -0.62319499 0 7 0
1.660959 -0.42494136 -0.6240648 0 8 0
1.7919681 -0.45845887 -0.62493402 0 9 0
1.9389116 -0.49605301 -0.62467647 0 10 0
2.1178565 -0.54183447 -0.62688434 0 11 0
2.3108449 -0.59120882 -0.62431431 0 12 0
2.5689163 -0.65723401 -0.62847942 0 13 0
2.8327799 -0.72474116 -0.62153548 0 14 0
3.0284679 -0.7748062 -0.5887872 0 15 0
3.20415 -0.81975287 -0.54356766 0 16 0
3.423805 -0.87594962 -0.49666089 0 17 0
3.8188138 -0.97700906 -0.46069264 0 18 0
4.9777403 -1.27351 -0.4795889 0 19 0
5.6441092 -1.4439944 -0.40728521 0 20 0
6.3739095 -1.6307073 -0.30629259 0 21 0
1.0836142 -0.26076773 -0.62638772 0 1 0
1.1400656 -0.27435252 -0.62356436 0 2 0
1.2153019 -0.29245788 -0.62784433 0 3 0
1.2868651 -0.3096793 -0.62667549 0 4 0
1.3649949 -0.32848096 -0.62514991 0 5 0
1.4577937 -0.35081264 -0.62625432 0 6 0
1.5396614 -0.37051377 -0.61854482 0 7 0
1.6624608 -0.40006498 -0.62241375 0 8 0
1.7934078 -0.43157691 -0.62321794 0 9 0
1.9450803 -0.46807632 -0.62444144 0 10 0
2.1215413 -0.51054102 -0.62574786 0 11 0
2.3263054 -0.55981672 -0.62626225 0 12 0
2.5722005 -0.61899048 -0.62705112 0 13 0
2.8087199 -0.67590797 -0.61407095 0 14 0
3.0040739 -0.72291923 -0.5819732 0 15 0
3.1510642 -0.75829184 -0.53266603 0 16 0
3.3544765 -0.80724227 -0.48487824 0 17 0
3.6545773 -0.87946039 -0.43931592 0 18 0
4.844893 -1.1659055 -0.46513397 0 19 0
5.6240816 -1.3534143 -0.40440068 0 20 0
6.3157001 -1.5198497 -0.30241901 0 21 0
1.0962888 -0.2472744 -0.63160372 0 1 0
1.136207 -0.25627819 -0.61938411 0 2 0
1.2207087 -0.27533805 -0.62853724 0 3 0
1.2909231 -0.29117531 -0.62655789 0 4 0
1.3617134 -0.30714247 -0.62156993 0 5 0
1.4512547 -0.32733905 -0.62136877 0 6 0
1.574746 -0.35519323 -0.63053268 0 7 0
1.6836818 -0.37976435 -0.6282593 0 8 0
1.8193003 -0.4103539 -0.63011009 0 9 0
1.9684802 -0.44400233 -0.6298489 0 10 0
2.1395185 -0.48258102 -0.62894851 0 11 0
2.3187351 -0.52300435 -0.62214524 0 12 0
2.5720613 -0.58014357 -0.62492889 0 13 0
2.7974565 -0.63098282 -0.60957146 0 14 0
2.9489288 -0.66514826 -0.56938732 0 15 0
3.0869329 -0.69627595 -0.52008712 0 16 0
3.2799921 -0.73982155 -0.47253272 0 17 0
3.5446475 -0.79951614 -0.42468214 0 18 0
4.7048664 -1.0612103 -0.45018631 0 19 0
5.5829754 -1.2592729 -0.40010786 0 20 0
6.2639422 -1.4128691 -0.29894167 0 21 0
1.0918992 -0.22991315 -0.62711453 0 1 0
1.160192 -0.24429308 -0.63048834 0 2 0
1.2160337 -0.25605124 -0.62417907 0 3 0
1.3038729 -0.27454692 -0.63087118 0 4 0
1.3757259 -0.28967646 -0.62600935 0 5 0
1.4538167 -0.30611947 -0.62052613 0 6 0
1.5645783 -0.32944173 -0.62450945 0 7 0
1.6830035 -0.35437766 -0.62604934 0 8 0
1.816437 -0.38247377 -0.62715805 0 9 0
1.9652605 -0.41381043 -0.62685931 0 10 0
2.1374252 -0.45006189 -0.62637526 0 11 0
2.3415263 -0.49303794 -0.62630272 0 12 0
2.5812509 -0.54351497 -0.62520742 0 13 0
2.77618 -0.5845598 -0.60305023 0 14 0
2.9157293 -0.61394364 -0.56122285 0 15 0
3.0469792 -0.64157999 -0.51175612 0 16 0
3.2123113 -0.67639273 -0.46134022 0 17 0
3.4550221 -0.72749853 -0.41265431 0 18 0
4.0656066 -0.8560648 -0.38780642 0 19 0
5.544065 -1.1673728 -0.39608127 0 20 0
6.1975355 -1.3049693 -0.29485086 0 21 0
1.0872976 -0.21274006 -0.62265903 0 1 0
1.1474652 -0.22451244 -0.6217621 0 2 0
1.2251683 -0.2397158 -0.62704235 0 3 0
1.2935539 -0.2530961 -0.6240617 0 4 0
1.3780268 -0.26962399 -0.62523621 0 5 0
1.4775302 -0.28909281 -0.62881708 0 6 0
1.5610604 -0.30543625 -0.62129658 0 7 0
1.6874193 -0.33015957 -0.62586999 0 8 0
1.8232181 -0.35672989 -0.62767208 0 9 0
1.9666545 -0.38479459 -0.6254831 0 10 0
2.1490169 -0.42047551 -0.62794411 0 11 0
2.3451295 -0.45884678 -0.62544572 0 12 0
2.5916195 -0.50707495 -0.62589675 0 13 0
2.7479947 -0.53767121 -0.595195 0 14 0
2.8999026 -0.56739342 -0.55655628 0 15 0
3.0056345 -0.58808088 -0.50334674 0 16 0
3.1405084 -0.61447024 -0.44971898 0 17 0
3.3785756 -0.66105038 -0.40235254 0 18 0
3.6978047 -0.7235105 -0.35169902 0 19 0
5.4827719 -1.0727563 -0.39056534 0 20 0
6.1458988 -1.2025033 -0.29154548 0 21 0
1.096236 -0.19824284 -0.62608868 0 1 0
1.1507267 -0.20809691 -0.62185168 0 2 0
1.2176865 -0.2202059 -0.62153637 0 3 0
1.3000971 -0.23510899 -0.62553078 0 4 0
1.3838925 -0.25026253 -0.62620819 0 5 0
1.4750654 -0.26675019 -0.62607896 0 6 0
1.5759076 -0.28498644 -0.62551814 0 7 0
1.6952915 -0.30657578 -0.62709796 0 8 0
1.8142844 -0.32809439 -0.62291598 0 9 0
1.9615266 -0.35472164 -0.62217367 0 10 0
2.1371164 -0.38647518 -0.62278664 0 11 0
2.3350775 -0.42227441 -0.62108928 0 12 0
2.5717905 -0.46508145 -0.61943668 0 13 0
2.7276304 -0.49326348 -0.58919472 0 14 0
2.8568764 -0.51663631 -0.54682332 0 15 0
2.9661398 -0.53639543 -0.49539611 0 16 0
3.0909779 -0.55897111 -0.44143531 0 17 0
3.2645912 -0.59036726 -0.38773218 0 18 0
3.5243454 -0.63734108 -0.33429936 0 19 0
5.447082 -0.985048 -0.38697898 0 20 0
6.0754509 -1.0986819 -0.28742817 0 21 0
1.0889434 -0.18086933 -0.62038153 0 1 0
1.1504672 -0.1910882 -0.62016994 0 2 0
1.2234815 -0.20321561 -0.62294579 0 3 0
1.3038404 -0.21656291 -0.62577629 0 4 0
1.3749644 -0.22837633 -0.6206255 0 5 0
1.4747242 -0.24494605 -0.62438208 0 6 0
1.5857743 -0.26339105 -0.62787378 0 7 0
1.695285 -0.28158033 -0.62554061 0 8 0
1.8278465 -0.30359831 -0.62601626 0 9 0
1.9828641 -0.32934615 -0.6273821 0 10 0
2.1532285 -0.35764301 -0.62592602 0 11 0
2.3565831 -0.39141944 -0.62525517 0 12 0
2.5716829 -0.42714673 -0.61787492 0 13 0
2.6981142 -0.44814643 -0.58137375 0 14 0
2.8347795 -0.47084603 -0.54124844 0 15 0
2.9265642 -0.48609111 -0.48757434 0 16 0
3.037848 -0.50457495 -0.43277186 0 17 0
3.2014143 -0.53174269 -0.3792859 0 18 0
3.399822 -0.56469744 -0.32168815 0 19 0
5.3743749 -0.89266312 -0.38086689 0 20 0
6.0307178 -1.0016792 -0.2846044 0 21 0
1.0430146 -0.15793611 -0.62560886 0 0 0
1.0975174 -0.16618906 -0.62384713 0 1 0
1.1441933 -0.17325686 -0.61538804 0 2 0
1.2255023 -0.18556888 -0.62255847 0 3 0
1.3001722 -0.19687562 -0.62259954 0 4 0
1.3770974 -0.20852384 -0.62017751 0 5 0
1.4834244 -0.22462416 -0.62664026 0 6 0
1.5774574 -0.2388629 -0.62316328 0 7 0
1.7014054 -0.25763145 -0.62637413 0 8 0
1.8370564 -0.27817208 -0.62774259 0 9 0
1.9958088 -0.30221081 -0.63004464 0 10 0
2.1633987 -0.32758772 -0.62745517 0 11 0
2.3671865 -0.35844582 -0.626643 0 12 0
2.546778 -0.38564005 -0.61050254 0 13 0
2.670821 -0.40442297 -0.57418668 0 14 0
2.7909911 -0.42261943 -0.53167844 0 15 0
2.8875153 -0.43723541 -0.47997683 0 16 0
2.999768 -0.45423305 -0.42637709 0 17 0
3.1432731 -0.47596297 -0.37155247 0 18 0
3.2736177 -0.49570012 -0.30904382 0 19 0
3.5852273 -0.54288483 -0.25349835 0 20 0
5.9556274 -0.90181732 -0.28042281 0 21 0
1.0362449 -0.1417715 -0.62026763 0 0 0
1.1114283 -0.15205753 -0.63045257 0 1 0
1.163836 -0.15922759 -0.62466288 0 2 0
1.2333217 -0.1687341 -0.62523979 0 3 0
1.3079822 -0.17894863 -0.62504882 0 4 0
1.3848618 -0.18946673 -0.62238914 0 5 0
1.4818569 -0.20273691 -0.62468833 0 6 0
1.6003807 -0.21895245 -0.63091624 0 7 0
1.7041404 -0.23314811 -0.62608832 0 8 0
1.8476839 -0.2527867 -0.63007319 0 9 0
1.9848713 -0.27155566 -0.62530077 0 10 0
2.1697989 -0.29685611 -0.62801468 0 11 0
2.363476 -0.32335362 -0.62437159 0 12 0
2.5422041 -0.34780592 -0.60815042 0 13 0
2.638617 -0.3609964 -0.56609446 0 14 0
2.7491326 -0.37611634 -0.52262539 0 15 0
2.8464828 -0.38943508 -0.47218126 0 16 0
2.9645331 -0.40558589 -0.42050067 0 17 0
3.071162 -0.42017406 -0.36228052 0 18 0
3.2221506 -0.44083124 -0.30355832 0 19 0
3.4178016 -0.4675988 -0.24116236 0 20 0
5.8968978 -0.80677068 -0.27708539 0 21 0
1.038484 -0.12696491 -0.62045658 0 0 0
1.1053191 -0.13513616 -0.62582594 0 1 0
1.1709065 -0.14315487 -0.62729377 0 2 0
1.2324952 -0.15068468 -0.62366349 0 3 0
1.3106688 -0.16024218 -0.62517262 0 4 0
1.3980687 -0.17092767 -0.62716085 0 5 0
1.4919593 -0.18240674 -0.62778211 0 6 0
1.5861369 -0.19392088 -0.62414277 0 7 0
1.7031542 -0.2082274 -0.62456703 0 8 0
1.8382052 -0.22473872 -0.62567985 0 9 0
1.9754983 -0.24152415 -0.62119526 0 10 0
2.161478 -0.26426199 -0.62444758 0 11 0
2.3462272 -0.28684938 -0.61866683 0 12 0
2.5184917 -0.30791044 -0.60136199 0 13 0
2.6088338 -0.31895566 -0.55866802 0 14 0
2.7159536 -0.33205208 -0.51536155 0 15 0
2.8276341 -0.34570614 -0.46818584 0 16 0
2.934345 -0.35875261 -0.41544774 0 17 0
3.0328121 -0.37079117 -0.35709405 0 18 0
3.1486771 -0.38495684 -0.29608697 0 19 0
3.2909687 -0.40235338 -0.23178285 0 20 0
3.6018267 -0.44035882 -0.16893035 0 21 0
1.0434343 -0.1124382 -0.62238884 0 0 0
1.1103305 -0.1196468 -0.6276294 0 1 0
1.1700957 -0.12608697 -0.62582839 0 2 0
1.2311599 -0.13266712 -0.62196326 0 3 0
1.3225441 -0.14251448 -0.62979949 0 4 0
1.3932694 -0.15013568 -0.62398005 0 5 0
1.4986534 -0.16149163 -0.62956166 0 6 0
1.5874966 -0.17106518 -0.62365043 0 7 0
1.7193434 -0.18527271 -0.62946683 0 8 0
1.8360295 -0.19784656 -0.6239115 0 9 0
1.9934795 -0.21481301 -0.62581849 0 10 0
2.1712525 -0.23396945 -0.62623984 0 11 0
2.3521876 -0.25346664 -0.61921853 0 12 0
2.507066 -0.270156 -0.59764922 0 13 0
2.5803645 -0.27805448 -0.55166268 0 14 0
2.6823535 -0.28904459 -0.50814873 0 15 0
2.8117516 -0.30298823 -0.46479043 0 16 0
2.8847759 -0.31085718 -0.40775797 0 17 0
2.9985759 -0.32312003 -0.35248229 0 18 0
3.1012011 -0.33417869 -0.29114294 0 19 0
3.2254229 -0.34756455 -0.22679284 0 20 0
3.407208 -0.36715332 -0.15953965 0 21 0
1.0509732 -0.098056279 -0.62598437 0 0 0
1.1112394 -0.10367915 -0.62724012 0 1 0
1.1796417 -0.11006112 -0.630027 0 2 0
1.2310036 -0.1148532 -0.62099022 0 3 0
1.3184553 -0.12301249 -0.62694973 0 4 0
1.4096839 -0.13152416 -0.63042367 0 5 0
1.4732528 -0.13745517 -0.61800146 0 6 0
1.5920365 -0.14853774 -0.62453473 0 7 0
1.7241975 -0.16086842 -0.6303364 0 8 0
1.85777 -0.17333078 -0.6303916 0 9 0
1.9823029 -0.18494977 -0.62141508 0 10 0
2.1800232 -0.20339717 -0.62786543 0 11 0
2.3187373 -0.21633925 -0.60953498 0 12 0
2.4568801 -0.22922805 -0.58484352 0 13 0
2.551301 -0.23803756 -0.54466492 0 14 0
2.6604261 -0.24821898 -0.50327015 0 15 0
2.7676263 -0.25822082 -0.45683864 0 16 0
2.8758805 -0.26832098 -0.40591621 0 17 0
2.9472544 -0.27498019 -0.34595135 0 18 0
3.0575063 -0.28526676 -0.28662816 0 19 0
3.1741862 -0.29615304 -0.22286929 0 20 0
3.291168 -0.30706748 -0.15388463 0 21 0
3.6921461 -0.34447894 -0.086216874 0 22 0
1.0470867 -0.082595937 -0.62290156 0 0 0
1.111088 -0.087644465 -0.62638235 0 1 0
1.1784869 -0.092960998 -0.62863523 0 2 0
1.2401212 -0.097822823 -0.62481934 0 3 0
1.332848 -0.10513725 -0.63301319 0 4 0
1.4029521 -0.11066718 -0.6266405 0 5 0
1.4955901 -0.11797462 -0.62659895 0 6 0
1.5913662 -0.1255296 -0.62350303 0 7 0
1.7018628 -0.13424575 -0.62140507 0 8 0
1.8387493 -0.1450436 -0.62316906 0 9 0
1.9982312 -0.15762378 -0.62563694 0 10 0
2.1749196 -0.17156126 -0.62562424 0 11 0
2.3146901 -0.1825866 -0.60772187 0 12 0
2.4569366 -0.19380723 -0.58413678 0 13 0
2.5310662 -0.1996547 -0.53967971 0 14 0
2.6192267 -0.20660894 -0.49486637 0 15 0
2.7227809 -0.21477747 -0.44888279 0 16 0
2.8408234 -0.22408886 -0.40047434 0 17 0
2.9049299 -0.22914569 -0.34056339 0 18 0
3.006953 -0.23719344 -0.28154188 0 19 0
3.1173277 -0.24589998 -0.21860756 0 20 0
3.2344794 -0.25514111 -0.15104783 0 21 0
3.3980622 -0.26804477 -0.079251885 0 22 0
1.0447407 -0.067380942 -0.62086856 0 0 0
1.1142683 -0.071865156 -0.62753111 0 1 0
1.1757669 -0.075831532 -0.62654114 0 2 0
1.2400072 -0.079974726 -0.62412113 0 3 0
1.3290318 -0.085716404 -0.63055348 0 4 0
1.4014455 -0.090386756 -0.62532568 0 5 0
1.4812109 -0.095531255 -0.61993825 0 6 0
1.6034024 -0.10341204 -0.62757462 0 7 0
1.7074198 -0.11012068 -0.62279481 0 8 0
1.848345 -0.11920971 -0.62577879 0 9 0
2.013149 -0.12983879 -0.62966126 0 10 0
2.1728106 -0.14013624 -0.62437665 0 11 0
2.2964339 -0.14810938 -0.60231036 0 12 0
2.4119837 -0.1555618 -0.57286119 0 13 0
2.5034635 -0.16146183 -0.53324682 0 14 0
2.6018913 -0.16780996 -0.49108699 0 15 0
2.6871369 -0.17330791 -0.44255215 0 16 0
2.8015883 -0.18068948 -0.39453828 0 17 0
2.8745627 -0.185396 -0.33665764 0 18 0
2.9617076 -0.19101645 -0.27702117 0 19 0
3.0601358 -0.19736461 -0.21437682 0 20 0
3.1685386 -0.20435609 -0.1478167 0 21 0
3.286433 -0.21195973 -0.076569788 0 22 0
3.5762296 -0.23065028 0.00010230771 0 23 0
1.0673474 -0.053512137 -0.63378322 0 0 0
1.110961 -0.05569873 -0.62515545 0 1 0
1.1612931 -0.058222167 -0.61832094 0 2 0
1.2489721 -0.062618002 -0.62811792 0 3 0
1.3212063 -0.066239513 -0.62632674 0 4 0
1.4074231 -0.07056205 -0.62747794 0 5 0
1.4973279 -0.07506948 -0.62616992 0 6 0
1.60086 -0.080260135 -0.62606579 0 7 0
1.7125845 -0.085861512 -0.62416649 0 8 0
1.8434753 -0.092423804 -0.6236183 0 9 0
2.0013728 -0.10034009 -0.62546468 0 10 0
2.1806228 -0.10932691 -0.62610775 0 11 0
2.2839596 -0.11450776 -0.59854746 0 12 0
