# .PCD v0.7 - Point Cloud Data file format
VERSION 0.7
FIELDS x y z intensity ring time
SIZE 4 4 4 4 2 4
TYPE F F F F U F
COUNT 1 1 1 1 1 1
WIDTH 1200
HEIGHT 1
VIEWPOINT 0 0 0 1 0 0 0
POINTS 1200
DATA ascii
-0.49170485 1.788077 -0.62654465 0 9 0
-0.52931452 1.9248439 -0.62309557 0 10 0
-0.57549036 2.0927618 -0.62240434 0 11 0
-0.63060576 2.2931879 -0.62249249 0 12 0
-0.65223503 2.3718424 -0.58302736 0 13 0
-0.67715466 2.4624622 -0.54285598 0 14 0
-0.69585675 2.5304723 -0.49430943 0 15 0
-0.72244245 2.6271508 -0.44780374 0 16 0
-0.74701011 2.7164905 -0.39593244 0 17 0
-0.76661062 2.7877674 -0.33791021 0 18 0
-0.79221308 2.8808703 -0.27888331 0 19 0
-0.81329864 2.9575477 -0.21443562 0 20 0
-0.83862352 3.0496411 -0.14724524 0 21 0
-0.8681699 3.1570864 -0.076128483 0 22 0
-0.90318692 3.284425 9.7245691e-05 0 23 0
-0.93710577 3.4077704 0.082375266 0 24 0
-0.97213924 3.5351691 0.17089769 0 25 0
-1.0141889 3.688082 0.26762214 0 26 0
-1.0596354 3.8533475 0.37325436 0 27 0
-1.1254773 4.0927806 0.49633881 0 28 0
-1.2010573 4.3676262 0.63685161 0 29 0
-0.29630572 1.0201694 -0.63001198 0 0 0
-0.31349549 1.0793531 -0.63167596 0 1 0
-0.32566682 1.1212586 -0.62089682 0 2 0
-0.35202292 1.2120017 -0.63391823 0 3 0
-0.36596563 1.2600058 -0.62121862 0 4 0
-0.38742027 1.3338734 -0.61848617 0 5 0
-0.41764149 1.4379239 -0.62539262 0 6 0
-0.44664365 1.5377773 -0.62546301 0 7 0
-0.47908911 1.6494858 -0.62522823 0 8 0
-0.51500368 1.7731383 -0.62382919 0 9 0
-0.5582186 1.9219255 -0.62467331 0 10 0
-0.60833114 2.0944612 -0.62543535 0 11 0
-0.66540128 2.2909517 -0.62440681 0 12 0
-0.68989491 2.3752823 -0.58624017 0 13 0
-0.71757323 2.4705777 -0.5468533 0 14 0
-0.74658328 2.5704582 -0.50415623 0 15 0
-0.76348615 2.628654 -0.44987661 0 16 0
-0.78560597 2.7048118 -0.39582863 0 17 0
-0.81441081 2.8039858 -0.34125406 0 18 0
-0.83919698 2.8893235 -0.28083566 0 19 0
-0.86485475 2.9776623 -0.21676937 0 20 0
-0.89707989 3.0886121 -0.1497315 0 21 0
-0.92763972 3.1938286 -0.077326722 0 22 0
-0.96489954 3.3221128 9.8760356e-05 0 23 0
-1.0010099 3.4464393 0.08364778 0 24 0
-1.0436791 3.5933478 0.17441447 0 25 0
-1.0836061 3.7308152 0.27182066 0 26 0
-1.1505842 3.9614179 0.38527837 0 27 0
-1.2219216 4.2070298 0.51226258 0 28 0
-0.30802348 1.0065032 -0.6242311 0 0 0
-0.32455403 1.0605186 -0.62330818 0 1 0
-0.34385708 1.1235937 -0.62485135 0 2 0
-0.36294612 1.1859695 -0.62295586 0 3 0
-0.3861582 1.2618177 -0.62477297 0 4 0
-0.40877631 1.3357249 -0.62199396 0 5 0
-0.43825522 1.4320508 -0.62550247 0 6 0
-0.46916649 1.5330571 -0.62621033 0 7 0
-0.50692236 1.6564288 -0.63054562 0 8 0
-0.5437538 1.7767799 -0.62778437 0 9 0
-0.58564615 1.913668 -0.62465 0 10 0
-0.63974899 2.0904555 -0.62690938 0 11 0
-0.69787216 2.28038 -0.62418407 0 12 0
-0.72982323 2.3847837 -0.5911029 0 13 0
-0.76148552 2.4882441 -0.5531196 0 14 0
-0.78288126 2.5581572 -0.5038898 0 15 0
-0.80583137 2.6331494 -0.4525736 0 16 0
-0.83125389 2.7162204 -0.39919853 0 17 0
-0.86186248 2.8162377 -0.34421125 0 18 0
-0.88443273 2.8899887 -0.28210187 0 19 0
-0.91829026 3.000622 -0.21937518 0 20 0
-0.94516146 3.0884271 -0.15036297 0 21 0
-0.99046999 3.2364781 -0.0786945 0 22 0
-1.0324147 3.3735371 0.0001007181 0 23 0
-1.0679277 3.4895802 0.085057124 0 24 0
-1.1181593 3.653718 0.17810333 0 25 0
-1.175324 3.8405101 0.28100973 0 26 0
-1.2455004 4.0698204 0.39751449 0 27 0
-1.358289 4.4383702 0.54274309 0 28 0
-0.32102093 0.99771488 -0.62156671 0 0 0
-0.34290868 1.0657408 -0.62919772 0 1 0
-0.36335364 1.1292826 -0.63084269 0 2 0
-0.37953916 1.1795863 -0.62239277 0 3 0
-0.40655154 1.2635392 -0.62844229 0 4 0
-0.42700508 1.3271077 -0.62076372 0 5 0
-0.45723921 1.4210737 -0.62350255 0 6 0
-0.48826322 1.5174944 -0.62264436 0 7 0
-0.53124988 1.6510946 -0.63134497 0 8 0
-0.56617159 1.7596294 -0.62452394 0 9 0
-0.61396348 1.9081638 -0.62565774 0 10 0
-0.66802454 2.0761826 -0.62543249 0 11 0
-0.73263419 2.2769856 -0.6260612 0 12 0
-0.76474112 2.3767722 -0.5917697 0 13 0
-0.80155933 2.4912009 -0.5562703 0 14 0
-0.83017623 2.5801408 -0.5105083 0 15 0
-0.854891 2.6569529 -0.45872101 0 16 0
-0.88229305 2.7421169 -0.40481904 0 17 0
-0.90934736 2.8262 -0.34698421 0 18 0
-0.94178849 2.9270253 -0.28700361 0 19 0
-0.97418958 3.0277262 -0.22235343 0 20 0
-1.0128453 3.147866 -0.15394686 0 21 0
-1.0541315 3.2761812 -0.080018558 0 22 0
-1.0955613 3.4049425 0.00010211342 0 23 0
-1.1404222 3.544368 0.086781539 0 24 0
-1.1960106 3.7171333 0.1820104 0 25 0
-1.2611545 3.9195971 0.28808784 0 26 0
-1.3765295 4.2781758 0.41974682 0 27 0
-1.5421239 4.7928338 0.5887273 0 28 0
-0.33887869 1.0037147 -0.62826198 0 0 0
-0.35626817 1.05522 -0.62593293 0 1 0
-0.37096742 1.0987573 -0.61669356 0 2 0
-0.40036112 1.1858176 -0.62863988 0 3 0
-0.41978696 1.2433544 -0.62132788 0 4 0
-0.45003563 1.332947 -0.62644404 0 5 0
-0.47861785 1.4176039 -0.62492186 0 6 0
-0.51286435 1.5190376 -0.62622541 0 7 0
-0.54813814 1.6235139 -0.62373489 0 8 0
-0.59139138 1.7516245 -0.62462318 0 9 0
-0.64269018 1.9035648 -0.62710184 0 10 0
-0.69752234 2.0659704 -0.62529969 0 11 0
-0.76144898 2.2553129 -0.62303513 0 12 0
-0.80682504 2.3897109 -0.5978052 0 13 0
-0.83750731 2.4805877 -0.55652022 0 14 0
-0.87158942 2.5815346 -0.51319987 0 15 0
-0.8968609 2.6563854 -0.46079215 0 16 0
-0.92735922 2.7467175 -0.40741608 0 17 0
-0.96386677 2.8548481 -0.3521592 0 18 0
-0.99992561 2.9616497 -0.29177213 0 19 0
-1.0359726 3.0684161 -0.22640745 0 20 0
-1.0666339 3.1592312 -0.15523341 0 21 0
-1.1158187 3.3049102 -0.081102021 0 22 0
-1.1627846 3.4440169 0.00010377376 0 23 0
-1.2204248 3.6147397 0.088923141 0 24 0
-1.2725866 3.7692358 0.18543454 0 25 0
-1.3876802 4.1101279 0.30352056 0 26 0
-1.5259467 4.5196557 0.44553655 0 27 0
-0.34844536 0.98529136 -0.61978847 0 0 0
-0.3685762 1.0422149 -0.62128431 0 1 0
-0.39291808 1.111046 -0.62668312 0 2 0
-0.41255409 1.1665702 -0.62150306 0 3 0
-0.44306183 1.2528362 -0.62917078 0 4 0
-0.46806103 1.323526 -0.62510097 0 5 0
-0.49481255 1.3991706 -0.61985469 0 6 0
-0.53540814 1.5139619 -0.62722808 0 7 0
-0.56967789 1.6108658 -0.62194461 0 8 0
-0.61937201 1.7513847 -0.62763476 0 9 0
-0.66688114 1.8857253 -0.62430549 0 10 0
-0.72424299 2.0479262 -0.62291205 0 11 0
-0.79861659 2.2582307 -0.62693477 0 12 0
-0.8510015 2.4063585 -0.6049549 0 13 0
-0.88348067 2.498199 -0.56325066 0 14 0
-0.91407245 2.5847027 -0.51637781 0 15 0
-0.95033145 2.6872315 -0.46845448 0 16 0
-0.9827292 2.778842 -0.41422504 0 17 0
-1.0182507 2.8792856 -0.35693496 0 18 0
-1.0540811 2.9806023 -0.29509541 0 19 0
-1.0913624 3.0860214 -0.22883567 0 20 0
-1.1375006 3.2164857 -0.15883045 0 21 0
-1.1832799 3.3459349 -0.082515933 0 22 0
-1.2378304 3.500186 0.00010598923 0 23 0
-1.2919017 3.6530821 0.090312019 0 24 0
-1.3772413 3.8943951 0.19254206 0 25 0
-1.5258657 4.3146572 0.32020444 0 26 0
-1.7100279 4.8354087 0.47902647 0 27 0
-0.36649048 0.99096328 -0.62659198 0 0 0
-0.38521889 1.0416036 -0.62414283 0 1 0
-0.40828228 1.1039652 -0.62592143 0 2 0
-0.43217805 1.1685777 -0.62580401 0 3 0
-0.45343044 1.2260425 -0.61891103 0 4 0
-0.4872227 1.3174144 -0.62544411 0 5 0
-0.51932365 1.4042128 -0.62531745 0 6 0
-0.55674505 1.5053977 -0.62691718 0 7 0
-0.59741926 1.6153778 -0.62692398 0 8 0
-0.63965863 1.7295898 -0.62304151 0 9 0
-0.69324881 1.8744937 -0.62380832 0 10 0
-0.7553215 2.0423336 -0.62443548 0 11 0
-0.83330351 2.2531915 -0.62878269 0 12 0
-0.88254201 2.3863287 -0.60303342 0 13 0
-0.92534643 2.5020688 -0.56705129 0 14 0
-0.95774961 2.5896845 -0.52005851 0 15 0
-1.0027961 2.7114866 -0.47513631 0 16 0
-1.0339706 2.7957804 -0.41891316 0 17 0
-1.0697713 2.8925827 -0.36044464 0 18 0
-1.1139233 3.0119667 -0.29974851 0 19 0
-1.1596423 3.1355877 -0.23371801 0 20 0
-1.2056254 3.2599223 -0.16181092 0 21 0
-1.2515771 3.3841724 -0.083892137 0 22 0
-1.3164736 3.5596478 0.00010834929 0 23 0
-1.3860732 3.7478399 0.093135573 0 24 0
-1.4962964 4.0458755 0.20106965 0 25 0
-1.6929471 4.5776048 0.34148198 0 26 0
-0.38271785 0.99100828 -0.63001966 0 0 0
-0.40273112 1.0428307 -0.62826794 0 1 0
-0.42688861 1.105384 -0.63012564 0 2 0
-0.44515821 1.1526912 -0.62064511 0 3 0
-0.47543934 1.231101 -0.62483585 0 4 0
-0.50358826 1.3039898 -0.62242913 0 5 0
-0.53937411 1.3966535 -0.62532508 0 6 0
-0.57493824 1.4887433 -0.62334478 0 7 0
-0.61818057 1.6007147 -0.62460327 0 8 0
-0.66534913 1.7228528 -0.62398136 0 9 0
-0.72755539 1.8839295 -0.63034946 0 10 0
-0.79079634 2.0476854 -0.62946802 0 11 0
-0.85551882 2.2152777 -0.62155592 0 12 0
-0.92750978 2.4016907 -0.6102078 0 13 0
-0.97387761 2.5217555 -0.57461321 0 14 0
-1.0083157 2.6109295 -0.52716923 0 15 0
-1.0467006 2.7103231 -0.47750881 0 16 0
-1.0862831 2.8128181 -0.42375237 0 17 0
-1.1295813 2.9249341 -0.36645314 0 18 0
-1.1816595 3.0597851 -0.30615923 0 19 0
-1.2234491 3.167995 -0.23741452 0 20 0
-1.2747668 3.3008769 -0.16473256 0 21 0
-1.3289486 3.4411752 -0.085767962 0 22 0
-1.3974627 3.6185853 0.00011074074 0 23 0
-1.4927063 3.8652089 0.096573301 0 24 0
-1.6411887 4.2496886 0.21234436 0 25 0
-1.8830848 4.8760538 0.36571902 0 26 0
-0.39614692 0.98365396 -0.62888461 0 0 0
-0.41630253 1.0337013 -0.62629366 0 1 0
-0.44117454 1.0954598 -0.62800378 0 2 0
-0.46218103 1.1476201 -0.62141299 0 3 0
-0.49132594 1.2199885 -0.62270129 0 4 0
-0.52709991 1.3088171 -0.62827021 0 5 0
-0.56710565 1.4081535 -0.6340434 0 6 0
-0.59797591 1.4848061 -0.62521595 0 7 0
-0.64079696 1.591133 -0.62437946 0 8 0
-0.68531317 1.7016691 -0.61979824 0 9 0
-0.74516517 1.8502848 -0.62259716 0 10 0
-0.80948943 2.0100055 -0.62138313 0 11 0
-0.8962968 2.2255528 -0.62797409 0 12 0
-0.95489854 2.3710639 -0.60583693 0 13 0
-1.0187123 2.5295169 -0.57964498 0 14 0
-1.0616698 2.6361828 -0.53528154 0 15 0
-1.1037359 2.7406349 -0.48558283 0 16 0
-1.1459874 2.8455479 -0.43111008 0 17 0
-1.1930933 2.9625142 -0.3732627 0 18 0
-1.2376899 3.0732501 -0.30924743 0 19 0
-1.2874494 3.1968052 -0.24092993 0 20 0
-1.3494908 3.3508575 -0.16817363 0 21 0
-1.4166211 3.5175457 -0.088167772 0 22 0
-1.5017321 3.7288809 0.00011476221 0 23 0
-1.6163236 4.0134177 0.10084405 0 24 0
-1.7972891 4.4627647 0.22425358 0 25 0
-2.114646 5.2507787 0.39605418 0 26 0
-0.40889195 0.97480232 -0.62690306 0 0 0
-0.42963308 1.0242494 -0.62422884 0 1 0
-0.45630428 1.0878338 -0.62731189 0 2 0
-0.47918853 1.14239 -0.62223119 0 3 0
-0.509983 1.2158043 -0.62422758 0 4 0
-0.54380447 1.296435 -0.62599874 0 5 0
-0.57874012 1.379722 -0.62490755 0 6 0
-0.61643094 1.4695772 -0.62245494 0 7 0
-0.66338104 1.5815067 -0.62426412 0 8 0
-0.71520019 1.705044 -0.62469214 0 9 0
-0.77528352 1.8482833 -0.62559354 0 10 0
-0.84410983 2.0123658 -0.62578392 0 11 0
-0.92718005 2.2104061 -0.62738067 0 12 0
-1.0073848 2.4016149 -0.61726415 0 13 0
-1.0768369 2.5671897 -0.59174907 0 14 0
-1.1129458 2.6532733 -0.54193091 0 15 0
-1.160875 2.7675371 -0.49324283 0 16 0
-1.2067786 2.876972 -0.43844298 0 17 0
-1.2638977 3.0131443 -0.38188207 0 18 0
-1.3048047 3.1106668 -0.31485957 0 19 0
-1.3618202 3.2465925 -0.24612604 0 20 0
-1.4233677 3.3933222 -0.17130981 0 21 0
-1.5076387 3.5942252 -0.090621367 0 22 0
-1.6071341 3.831423 0.00011861393 0 23 0
-1.7564371 4.1873627 0.10583558 0 24 0
-1.9704473 4.6975651 0.23744521 0 25 0
-0.41931397 0.96085888 -0.62173206 0 0 0
-0.44931161 1.0295986 -0.63134372 0 1 0
-0.46722996 1.0706584 -0.62120044 0 2 0
-0.4921979 1.1278726 -0.61809778 0 3 0
-0.53061777 1.2159117 -0.6281178 0 4 0
-0.56300813 1.2901343 -0.62678337 0 5 0
-0.59756213 1.369315 -0.62400401 0 6 0
-0.64085889 1.4685295 -0.62583232 0 7 0
-0.68671882 1.5736176 -0.62496597 0 8 0
-0.73746926 1.6899123 -0.62295181 0 9 0
-0.80186468 1.8374747 -0.62575585 0 10 0
-0.86684984 1.9863883 -0.62150037 0 11 0
-0.95187306 2.1812193 -0.62289977 0 12 0
-1.0407399 2.3848577 -0.61672276 0 13 0
-1.1257656 2.5796943 -0.59828448 0 14 0
-1.1701826 2.6814759 -0.55105585 0 15 0
-1.2104578 2.7737668 -0.49739003 0 16 0
-1.2684869 2.9067404 -0.44570097 0 17 0
-1.3199255 3.0246122 -0.38569045 0 18 0
-1.3736262 3.1476674 -0.32056203 0 19 0
-1.4381343 3.2954879 -0.25136763 0 20 0
-1.5151274 3.4719179 -0.17635444 0 21 0
-1.6160923 3.703279 -0.09394455 0 22 0
-1.7367196 3.9796968 0.0001239611 0 23 0
-1.9069088 4.3696856 0.11112227 0 24 0
-2.1544292 4.9368792 0.2510747 0 25 0
-0.43549716 0.96021479 -0.62528467 0 0 0
-0.45643908 1.006389 -0.62105429 0 1 0
-0.48380592 1.0667293 -0.62287486 0 2 0
-0.51340139 1.1319835 -0.62431389 0 3 0
-0.5488413 1.2101239 -0.62912166 0 4 0
-0.58288473 1.2851852 -0.6283679 0 5 0
-0.61841428 1.3635234 -0.62533438 0 6 0
-0.66317189 1.462208 -0.62711942 0 7 0
-0.70984066 1.5651066 -0.62555689 0 8 0
-0.76196659 1.6800376 -0.62326825 0 9 0
-0.82636714 1.8220325 -0.62446111 0 10 0
-0.89908618 1.9823686 -0.62420523 0 11 0
-0.98618448 2.1744089 -0.62492204 0 12 0
-1.0902683 2.4039001 -0.62561864 0 13 0
-1.1732253 2.5868099 -0.60376745 0 14 0
-1.2186929 2.6870599 -0.55573124 0 15 0
-1.2696682 2.799454 -0.50520331 0 16 0
-1.3250347 2.92153 -0.45083061 0 17 0
-1.3855431 3.0549431 -0.3920469 0 18 0
-1.4444876 3.1849079 -0.32642686 0 19 0
-1.5291048 3.3714781 -0.25880679 0 20 0
-1.6245689 3.581964 -0.18310657 0 21 0
-1.7374022 3.8307467 -0.097798981 0 22 0
-1.8765488 4.137547 0.00012970123 0 23 0
-2.0713284 4.5670109 0.11688229 0 24 0
-2.3311303 5.1398401 0.26306665 0 25 0
-0.44902962 0.95353216 -0.6250543 0 0 0
-0.47048703 0.99909776 -0.62064701 0 1 0
-0.5021227 1.0662774 -0.62674332 0 2 0
-0.53370458 1.1333427 -0.62921226 0 3 0
-0.56660575 1.2032098 -0.62967885 0 4 0
-0.60128742 1.2768576 -0.6284399 0 5 0
-0.63400209 1.3463285 -0.62154675 0 6 0
-0.68524754 1.4551502 -0.62823468 0 7 0
-0.7358312 1.5625666 -0.6286869 0 8 0
-0.78652096 1.6702083 -0.62373435 0 9 0
-0.85656941 1.8189589 -0.62754542 0 10 0
-0.92542148 1.9651691 -0.62289655 0 11 0
-1.0180575 2.1618853 -0.62544662 0 12 0
-1.1213043 2.381134 -0.62380677 0 13 0
-1.2251401 2.6016333 -0.61125767 0 14 0
-1.273276 2.7038519 -0.56291574 0 15 0
-1.3335443 2.8318341 -0.51443875 0 16 0
-1.3938148 2.9598207 -0.45977092 0 17 0
-1.4446557 3.0677834 -0.3963078 0 18 0
-1.5347071 3.259011 -0.3362388 0 19 0
-1.627878 3.4568632 -0.26712254 0 20 0
-1.7351643 3.6846898 -0.18960799 0 21 0
-1.8617507 3.953501 -0.10160282 0 22 0
-2.022203 4.2942281 0.00013550624 0 23 0
-2.2199934 4.7142439 0.12145117 0 24 0
-2.5081522 5.3261604 0.27441218 0 25 0
-0.46229741 0.94632602 -0.62460417 0 0 0
-0.4874866 0.99788839 -0.62416637 0 1 0
-0.51275963 1.0496224 -0.6212042 0 2 0
-0.5494222 1.124671 -0.62869954 0 3 0
-0.57796443 1.1830971 -0.62341881 0 4 0
-0.61786377 1.2647715 -0.62677979 0 5 0
-0.65862024 1.3482001 -0.62669873 0 6 0
-0.70408684 1.4412706 -0.62652916 0 7 0
-0.75708902 1.5497664 -0.62783253 0 8 0
-0.81346637 1.6651713 -0.62613738 0 9 0
-0.87763155 1.7965178 -0.62407315 0 10 0
-0.96103662 1.9672486 -0.62785149 0 11 0
-1.0531752 2.1558571 -0.62799942 0 12 0
-1.1501229 2.3543093 -0.62102842 0 13 0
-1.2720413 2.6038773 -0.61599958 0 14 0
-1.3274096 2.7172167 -0.5695954 0 15 0
-1.3895797 2.8444791 -0.5202958 0 16 0
-1.4478978 2.9638567 -0.46356961 0 17 0
-1.5425458 3.1576018 -0.41072106 0 18 0
-1.632785 3.3423219 -0.34720981 0 19 0
-1.7316815 3.544764 -0.27580199 0 20 0
-1.8491234 3.7851682 -0.19612032 0 21 0
-1.9904914 4.0745497 -0.1054351 0 22 0
-2.1858516 4.4744534 0.00014216604 0 23 0
-2.3800256 4.8719287 0.12637824 0 24 0
-2.7121174 5.551723 0.2880041 0 25 0
-0.47331694 0.93472111 -0.62135249 0 0 0
-0.50487775 0.99704844 -0.62809676 0 1 0
-0.53278214 1.0521549 -0.62715203 0 2 0
-0.56666571 1.1190692 -0.63003761 0 3 0
-0.60048354 1.1858536 -0.62933588 0 4 0
-0.64241725 1.2686657 -0.63320166 0 5 0
-0.67510962 1.3332276 -0.62416685 0 6 0
-0.7261973 1.4341172 -0.62787372 0 7 0
-0.77967018 1.5397171 -0.62821805 0 8 0
-0.83653235 1.6520103 -0.6256268 0 9 0
-0.9071309 1.7914306 -0.6267522 0 10 0
-0.9871496 1.9494539 -0.62661761 0 11 0
-1.0830972 2.1389344 -0.62752157 0 12 0
-1.1864154 2.3429704 -0.62245309 0 13 0
-1.3148381 2.5965834 -0.61866295 0 14 0
-1.3839802 2.7331274 -0.5770241 0 15 0
-1.4521666 2.867784 -0.52830648 0 16 0
-1.5229203 3.0075107 -0.47375831 0 17 0
-1.6258796 3.2108381 -0.42062971 0 18 0
-1.7292935 3.4150629 -0.35730106 0 19 0
-1.8402849 3.6342523 -0.28478494 0 20 0
-1.9733272 3.8969884 -0.20335667 0 21 0
-2.1319618 4.2102652 -0.10972534 0 22 0
-2.3090794 4.5600424 0.00014592063 0 23 0
-2.5147123 4.9661326 0.12974229 0 24 0
-0.49133366 0.93678856 -0.62733752 0 0 0
-0.52501041 1.0009974 -0.63525331 0 1 0
-0.53824204 1.0262252 -0.6162253 0 2 0
-0.58601534 1.1173109 -0.6337052 0 3 0
-0.61427242 1.1711864 -0.62615395 0 4 0
-0.65569019 1.2501546 -0.62858248 0 5 0
-0.69389868 1.3230039 -0.62396634 0 6 0
-0.74074543 1.412323 -0.62291014 0 7 0
-0.79833609 1.5221267 -0.62563926 0 8 0
-0.86074752 1.6411219 -0.62610489 0 9 0
-0.92933464 1.7718917 -0.62450618 0 10 0
-1.0105727 1.9267821 -0.62391567 0 11 0
-1.1079361 2.1124177 -0.6243307 0 12 0
-1.2300268 2.3451986 -0.62765813 0 13 0
-1.363129 2.5989745 -0.62381744 0 14 0
-1.4370519 2.7399175 -0.5827406 0 15 0
-1.5217726 2.9014482 -0.53846568 0 16 0
-1.6005965 3.0517359 -0.48428419 0 17 0
-1.7136093 3.2672086 -0.43118346 0 18 0
-1.8347837 3.4982426 -0.36871362 0 19 0
-1.965464 3.7474008 -0.29582563 0 20 0
-2.0918779 3.9884248 -0.20966908 0 21 0
-2.2751708 4.3378954 -0.1138886 0 22 0
-2.4352381 4.6430831 0.00014967799 0 23 0
-2.6229496 5.0009789 0.13162002 0 24 0
-0.501441 0.92367464 -0.62329817 0 0 0
-0.5340271 0.98369956 -0.62906218 0 1 0
-0.56365168 1.0382693 -0.62823766 0 2 0
-0.59571528 1.0973316 -0.62714541 0 3 0
-0.63110256 1.1625165 -0.62628406 0 4 0
-0.67465293 1.2427381 -0.62964433 0 5 0
-0.71865064 1.3237836 -0.62912101 0 6 0
-0.7703861 1.4190824 -0.63069022 0 7 0
-0.82427418 1.5183464 -0.62887043 0 8 0
-0.88650596 1.6329799 -0.62777537 0 9 0
-0.95252627 1.7545919 -0.62315035 0 10 0
-1.0421866 1.91975 -0.62640482 0 11 0
-1.1325561 2.0862143 -0.62131369 0 12 0
-1.2590741 2.3192656 -0.62547672 0 13 0
-1.4061373 2.590162 -0.62646896 0 14 0
-1.4937387 2.7515271 -0.58969671 0 15 0
-1.5995506 2.9464371 -0.55100745 0 16 0
-1.6961704 3.1244147 -0.49961925 0 17 0
-1.8123995 3.3385134 -0.44397187 0 18 0
-1.9491999 3.5905051 -0.38133964 0 19 0
-2.0740597 3.820502 -0.30390877 0 20 0
-2.2247798 4.0981345 -0.21708825 0 21 0
-2.4153032 4.4490867 -0.11770344 0 22 0
-2.5510826 4.6991978 0.00015264841 0 23 0
-2.7474415 5.0608983 0.13421829 0 24 0
-0.51520801 0.91746962 -0.62402332 0 0 0
-0.54857647 0.9768914 -0.6296652 0 1 0
-0.57446808 1.0229985 -0.62390906 0 2 0
-0.60777742 1.082315 -0.62347108 0 3 0
-0.64747864 1.1530138 -0.62609333 0 4 0
-0.68499243 1.2198175 -0.62293518 0 5 0
-0.72854853 1.297381 -0.62146556 0 6 0
-0.78412759 1.3963549 -0.62551343 0 7 0
-0.83895111 1.4939833 -0.62368941 0 8 0
-0.90572739 1.6128968 -0.62497455 0 9 0
-0.98492092 1.7539227 -0.62785518 0 10 0
-1.0646185 1.8958461 -0.62351346 0 11 0
-1.167645 2.079313 -0.62417197 0 12 0
-1.2881321 2.2938735 -0.62353736 0 13 0
-1.4372141 2.5593553 -0.62392956 0 14 0
-1.5547049 2.76858 -0.59805936 0 15 0
-1.6769294 2.9862342 -0.56288087 0 16 0
-1.7881457 3.1842854 -0.51323324 0 17 0
-1.9187338 3.4168334 -0.45799261 0 18 0
-2.049314 3.6493673 -0.39066663 0 19 0
-2.1746771 3.872611 -0.31049812 0 20 0
-2.3530071 4.1901765 -0.22372513 0 21 0
-2.510498 4.4706326 -0.1192119 0 22 0
-2.6394207 4.7002149 0.00015389292 0 23 0
-2.8352597 5.0489602 0.13496412 0 24 0
-0.53437895 0.92049736 -0.6312204 0 0 0
-0.55797297 0.96113938 -0.62459594 0 1 0
-0.5906592 1.0174432 -0.62561303 0 2 0
-0.62751293 1.0809258 -0.62778062 0 3 0
-0.66319793 1.1423953 -0.62541783 0 4 0
-0.69855022 1.2032915 -0.61953837 0 5 0
-0.75351006 1.2979628 -0.62684631 0 6 0
-0.8004694 1.378853 -0.62274194 0 7 0
-0.8571071 1.4764144 -0.62141293 0 8 0
-0.92866421 1.5996757 -0.62493813 0 9 0
-1.0053798 1.7318224 -0.62503123 0 10 0
-1.0953375 1.8867797 -0.62562382 0 11 0
-1.1999052 2.0669031 -0.62553817 0 12 0
-1.330125 2.291214 -0.62792528 0 13 0
-1.4785856 2.5469456 -0.62599945 0 14 0
-1.6386967 2.8227458 -0.61476392 0 15 0
-1.7587779 3.0295923 -0.57573968 0 16 0
-1.8798764 3.2381911 -0.52620459 0 17 0
-2.0201716 3.4798577 -0.47026807 0 18 0
-2.1666567 3.7321863 -0.40281105 0 19 0
-2.2998948 3.9616961 -0.32024741 0 20 0
-2.4739051 4.2614384 -0.22939715 0 21 0
-2.589958 4.4613461 -0.11994051 0 22 0
-2.7380781 4.7164912 0.00015569308 0 23 0
-2.9254766 5.0392952 0.13581119 0 24 0
-0.54064703 0.90133291 -0.62332135 0 0 0
-0.56889278 0.94842249 -0.6215598 0 1 0
-0.60634392 1.0108587 -0.62683666 0 2 0
-0.64500397 1.0753102 -0.62981665 0 3 0
-0.6779508 1.1302372 -0.62401032 0 4 0
-0.7255885 1.2096558 -0.62809807 0 5 0
-0.76571184 1.276547 -0.62173301 0 6 0
-0.82261097 1.3714056 -0.62463218 0 7 0
-0.88508832 1.4755639 -0.62632293 0 8 0
-0.95560879 1.5931313 -0.62766069 0 9 0
-1.028059 1.7139157 -0.62381548 0 10 0
-1.1203756 1.8678201 -0.62459064 0 11 0
-1.2301513 2.0508313 -0.62593889 0 12 0
-1.3557656 2.2602477 -0.62469304 0 13 0
-1.508623 2.5150819 -0.62341142 0 14 0
-1.6950703 2.8259151 -0.62067467 0 15 0
-1.8409783 3.069164 -0.58820724 0 16 0
-1.9860111 3.3109536 -0.54259217 0 17 0
-2.1166832 3.5288019 -0.48092747 0 18 0
-2.2579122 3.76425 -0.40971783 0 19 0
-2.4274635 4.0469155 -0.32991105 0 20 0
-2.5515709 4.2538195 -0.23092934 0 21 0
-2.6677754 4.4475479 -0.1205838 0 22 0
-2.8225453 4.7055712 0.00015665019 0 23 0
-2.9982703 4.998529 0.1358552 0 24 0
-0.55380017 0.89400107 -0.62366891 0 0 0
-0.59089261 0.95387954 -0.6306144 0 1 0
-0.62486863 1.0087271 -0.63099647 0 2 0
-0.65589285 1.0588096 -0.62558669 0 3 0
-0.69242895 1.11779 -0.62254632 0 4 0
-0.73766589 1.190816 -0.6237343 0 5 0
-0.78571022 1.2683741 -0.62316608 0 6 0
-0.84055823 1.3569154 -0.62344837 0 7 0
-0.90724564 1.4645691 -0.62710381 0 8 0
-0.97490776 1.5737963 -0.62547678 0 9 0
-1.0623013 1.7148759 -0.62963468 0 10 0
-1.1393474 1.8392518 -0.62042725 0 11 0
-1.2635469 2.0397472 -0.62801158 0 12 0
-1.3908963 2.2453277 -0.62600762 0 13 0
-1.546222 2.4960704 -0.62412089 0 14 0
-1.7363013 2.8029158 -0.62101805 0 15 0
-1.913524 3.0890069 -0.59719813 0 16 0
-2.0797887 3.3574085 -0.55502677 0 17 0
-2.2118094 3.5705299 -0.49087879 0 18 0
-2.3647962 3.8174968 -0.4191547 0 19 0
-2.5257449 4.0773168 -0.33530226 0 20 0
-2.6388564 4.259913 -0.23328675 0 21 0
-2.7530863 4.4443145 -0.12155207 0 22 0
-2.9044473 4.6886573 0.00015745495 0 23 0
-3.0634966 4.9454107 0.13558939 0 24 0
-0.57079595 0.89264178 -0.62835586 0 0 0
-0.6002152 0.93864918 -0.62616104 0 1 0
-0.63139212 0.98740536 -0.62324828 0 2 0
-0.66801733 1.0446818 -0.62282503 0 3 0
-0.7094003 1.1093988 -0.62346423 0 4 0
-0.75696874 1.1837889 -0.62566459 0 5 0
-0.80880952 1.2648604 -0.62706333 0 6 0
-0.85976082 1.3445407 -0.62335306 0 7 0
-0.92154294 1.441159 -0.62266415 0 8 0
-1.0053073 1.5721543 -0.63047844 0 9 0
-1.0809268 1.6904122 -0.6262691 0 10 0
-1.175894 1.838927 -0.62593114 0 11 0
-1.2880853 2.0143778 -0.62581307 0 12 0
-1.4158423 2.2141712 -0.62290746 0 13 0
-1.5850774 2.4788303 -0.62541902 0 14 0
-1.7858254 2.7927709 -0.62436974 0 15 0
-2.0168321 3.1540318 -0.61528736 0 16 0
-2.1830413 3.4139588 -0.56948256 0 17 0
-2.313205 3.6175158 -0.50183898 0 18 0
-2.46048 3.8478324 -0.42630872 0 19 0
-2.5961912 4.0600653 -0.33690497 0 20 0
-2.7090321 4.2365317 -0.23410583 0 21 0
-2.8236358 4.4157553 -0.12186387 0 22 0
-2.9714618 4.6469336 0.00015746597 0 23 0
-3.1313937 4.8970437 0.1354783 0 24 0
-0.57936144 0.87808901 -0.62388527 0 0 0
-0.61848933 0.93739176 -0.63116312 0 1 0
-0.64901984 0.98366433 -0.62668645 0 2 0
-0.69423395 1.0521915 -0.63316154 0 3 0
-0.73133862 1.1084279 -0.62873703 0 4 0
-0.76680136 1.1621758 -0.6199789 0 5 0
-0.82200938 1.2458498 -0.62340784 0 6 0
-0.88284206 1.3380488 -0.62613767 0 7 0
-0.94321901 1.429557 -0.62342066 0 8 0
-1.0235229 1.5512667 -0.62791276 0 9 0
-1.105517 1.6755384 -0.62655681 0 10 0
-1.1958841 1.8125001 -0.62269855 0 11 0
-1.3220276 2.003685 -0.62830555 0 12 0
-1.4547081 2.2047777 -0.6260584 0 13 0
-1.6178908 2.4520998 -0.6244536 0 14 0
-1.8273399 2.7695441 -0.62496048 0 15 0
-2.074331 3.1438878 -0.61903715 0 16 0
-2.2669528 3.4358282 -0.57848394 0 17 0
-2.4083517 3.6501343 -0.5110938 0 18 0
-2.5507524 3.8659589 -0.43231773 0 19 0
-2.6776309 4.0582581 -0.33990052 0 20 0
-2.7853658 4.2215428 -0.23545651 0 21 0
-2.9051254 4.4030523 -0.1226483 0 22 0
-3.0281618 4.5895276 0.00015697337 0 23 0
-3.1921601 4.8380866 0.13509744 0 24 0
-3.5687873 5.4089084 0.30205262 0 25 0
-0.59305567 0.87145048 -0.62513578 0 0 0
-0.62360829 0.91634524 -0.62293833 0 1 0
-0.65830576 0.96733057 -0.62221962 0 2 0
-0.69623262 1.0230613 -0.6215654 0 3 0
-0.74215966 1.0905476 -0.62455642 0 4 0
-0.79477996 1.1678691 -0.62902033 0 5 0
-0.85027891 1.2494206 -0.63121992 0 6 0
-0.90026492 1.3228713 -0.62500131 0 7 0
-0.96609384 1.4196019 -0.62504566 0 8 0
-1.0430886 1.5327399 -0.62639272 0 9 0
-1.1181809 1.6430824 -0.6203416 0 10 0
-1.2273248 1.8034612 -0.62556446 0 11 0
-1.3407125 1.9700758 -0.62372023 0 12 0
-1.4852624 2.1824811 -0.62569976 0 13 0
-1.6575049 2.4355783 -0.6262238 0 14 0
-1.8724027 2.7513542 -0.62683934 0 15 0
-2.1401377 3.1447706 -0.62517864 0 16 0
-2.3505399 3.4539409 -0.58713806 0 17 0
-2.4906683 3.6598489 -0.51739275 0 18 0
-2.6189353 3.8483276 -0.43449351 0 19 0
-2.7383158 4.0237484 -0.34025806 0 20 0
-2.849221 4.1867151 -0.23576447 0 21 0
-2.9665141 4.3590684 -0.12259333 0 22 0
-3.0810018 4.5272994 0.00015633731 0 23 0
-3.2290311 4.7448173 0.1337699 0 24 0
-3.5703676 5.2463851 0.2958003 0 25 0
-0.60643029 0.86424613 -0.62613028 0 0 0
-0.63610011 0.90652966 -0.6223914 0 1 0
-0.67487019 0.96178228 -0.62480026 0 2 0
-0.71685898 1.0216221 -0.62686074 0 3 0
-0.75516558 1.0762142 -0.62247425 0 4 0
-0.81033081 1.1548322 -0.62818134 0 5 0
-0.85617471 1.220166 -0.62256765 0 6 0
-0.91680306 1.3065697 -0.6234355 0 7 0
-0.98409319 1.4024674 -0.6236394 0 8 0
-1.0697212 1.5244989 -0.6292178 0 9 0
-1.1493664 1.6380043 -0.62457156 0 10 0
-1.2537271 1.7867326 -0.62592232 0 11 0
-1.3747038 1.9591408 -0.62642366 0 12 0
-1.5102569 2.1523225 -0.62318712 0 13 0
-1.6872987 2.4046311 -0.62441254 0 14 0
-1.9033453 2.7125273 -0.62413639 0 15 0
-2.1832068 3.1113684 -0.6246866 0 16 0
-2.4436862 3.4825871 -0.59789228 0 17 0
-2.5724308 3.6660657 -0.52342331 0 18 0
-2.6901739 3.8338656 -0.43716338 0 19 0
-2.8044503 3.9967251 -0.34133241 0 20 0
-2.9165108 4.1564264 -0.23638543 0 21 0
-3.0250571 4.31112 -0.12245003 0 22 0
-3.1443906 4.4811864 0.00015628312 0 23 0
-3.2807531 4.6755219 0.13312654 0 24 0
-3.5832446 5.1066136 0.29078168 0 25 0
-0.60833949 0.84110218 -0.61560827 0 0 0
-0.65105945 0.90016764 -0.62435758 0 1 0
-0.69243687 0.95737684 -0.62831259 0 2 0
-0.72852141 1.0072681 -0.62438762 0 3 0
-0.77076 1.065668 -0.62269157 0 4 0
-0.82413536 1.1394658 -0.62617517 0 5 0
-0.88024402 1.2170428 -0.62733841 0 6 0
-0.92844111 1.2836809 -0.6187917 0 7 0
-1.008846 1.3948504 -0.62660927 0 8 0
-1.0858058 1.5012565 -0.62597525 0 9 0
-1.1591643 1.6026834 -0.61736691 0 10 0
-1.2694066 1.7551066 -0.62114471 0 11 0
-1.3925745 1.925401 -0.62194514 0 12 0
-1.543744 2.1344109 -0.62433481 0 13 0
-1.7316443 2.3942056 -0.62807709 0 14 0
-1.9510632 2.6975784 -0.62705821 0 15 0
-2.2266002 3.0785413 -0.6244306 0 16 0
-2.5112784 3.4721432 -0.60220861 0 17 0
-2.6337953 3.6415372 -0.5252499 0 18 0
-2.74669 3.7976279 -0.43746939 0 19 0
-2.8521903 3.9434946 -0.34023806 0 20 0
-2.9619677 4.0952749 -0.23529465 0 21 0
-3.0759034 4.2528048 -0.12203169 0 22 0
-3.1956086 4.4183116 0.00015566959 0 23 0
-3.3330061 4.6082802 0.13255674 0 24 0
-3.5863273 4.9585266 0.28524309 0 25 0
-0.62989676 0.84516579 -0.6251173 0 0 0
-0.67155242 0.90105736 -0.63157701 0 1 0
-0.69798869 0.93652833 -0.62112308 0 2 0
-0.74235195 0.99605286 -0.62395823 0 3 0
-0.7855882 1.0540652 -0.62241846 0 4 0
-0.84382087 1.132199 -0.62875473 0 5 0
-0.90136385 1.2094074 -0.62998849 0 6 0
-0.96242762 1.29134 -0.62905973 0 7 0
-1.032827 1.3857986 -0.62911963 0 8 0
-1.1101972 1.4896102 -0.62768078 0 9 0
-1.201817 1.6125414 -0.62772638 0 10 0
-1.3089257 1.7562548 -0.62811726 0 11 0
-1.4264716 1.9139723 -0.62478483 0 12 0
-1.5788337 2.1184046 -0.62619901 0 13 0
-1.7632356 2.3658264 -0.6271888 0 14 0
-1.9855013 2.664052 -0.62580699 0 15 0
-2.2749395 3.0524068 -0.62567025 0 16 0
-2.6018226 3.491003 -0.61187613 0 17 0
-2.6919873 3.6119816 -0.52649063 0 18 0
-2.8027267 3.7605665 -0.43777654 0 19 0
-2.9126124 3.9080062 -0.34073818 0 20 0
-3.0200539 4.052166 -0.23527737 0 21 0
-3.1370366 4.2091279 -0.12205434 0 22 0
-3.2540133 4.3660817 0.00015545449 0 23 0
-3.3887022 4.5468011 0.13216998 0 24 0
-3.6032662 4.834693 0.28105757 0 25 0
-0.64478356 0.83978295 -0.6278978 0 0 0
-0.66802788 0.87005699 -0.61648697 0 1 0
-0.7102201 0.92500925 -0.62016195 0 2 0
-0.76133639 0.99158442 -0.62792122 0 3 0
-0.80020124 1.0422031 -0.62211353 0 4 0
-0.85607874 1.1149794 -0.62593263 0 5 0
-0.91905677 1.1970035 -0.63031507 0 6 0
-0.96773255 1.2604002 -0.62067187 0 7 0
-1.0422904 1.3575064 -0.62298453 0 8 0
-1.1328033 1.4753926 -0.62845778 0 9 0
-1.2248968 1.5953376 -0.62779003 0 10 0
-1.3328681 1.7359623 -0.62761855 0 11 0
-1.455038 1.8950795 -0.62535203 0 12 0
-1.6036144 2.0885894 -0.62410671 0 13 0
-1.7887677 2.3297377 -0.62434518 0 14 0
-2.0161653 2.6259065 -0.62356144 0 15 0
-2.3112013 3.010169 -0.62372947 0 16 0
-2.6455245 3.4456003 -0.61049271 0 17 0
-2.7586308 3.5929127 -0.52941239 0 18 0
-2.8541903 3.7173722 -0.4374592 0 19 0
-2.9619114 3.857671 -0.34001106 0 20 0
-3.0777225 4.0085063 -0.2352761 0 21 0
-3.1905787 4.1554933 -0.12181085 0 22 0
-3.3038943 4.3030782 0.00015487915 0 23 0
-3.4411576 4.481854 0.13170034 0 24 0
-3.6437309 4.7456903 0.27888688 0 25 0
-0.64901209 0.82070106 -0.6205126 0 0 0
-0.68383694 0.8647384 -0.6195904 0 1 0
-0.73674446 0.931642 -0.63161415 0 2 0
-0.77346575 0.97807753 -0.62631446 0 3 0
-0.8186813 1.0352542 -0.62489647 0 4 0
-0.87021714 1.1004235 -0.6246897 0 5 0
-0.9325648 1.1792644 -0.62793863 0 6 0
-0.98807079 1.2494539 -0.62218219 0 7 0
-1.0697982 1.3528014 -0.62778825 0 8 0
-1.1467954 1.4501674 -0.62464082 0 9 0
-1.2397201 1.5676742 -0.62382293 0 10 0
-1.3473276 1.7037481 -0.62288034 0 11 0
-1.4887025 1.8825222 -0.62817544 0 12 0
-1.6347189 2.0671656 -0.62463278 0 13 0
-1.8284754 2.3121781 -0.626589 0 14 0
-2.065949 2.6124728 -0.62732917 0 15 0
-2.3559639 2.979208 -0.62423766 0 16 0
-2.6789041 3.3875782 -0.60694402 0 17 0
-2.8061888 3.5485346 -0.52873766 0 18 0
-2.9076955 3.6768942 -0.43754867 0 19 0
-3.0155158 3.813237 -0.33986416 0 20 0
-3.1164954 3.9409297 -0.23390399 0 21 0
-3.2395742 4.0965676 -0.12143036 0 22 0
-3.3457501 4.2308311 0.00015398666 0 23 0
-3.510813 4.4395595 0.13192065 0 24 0
-3.7093201 4.6905794 0.27873975 0 25 0
-0.6614325 0.81223828 -0.62120855 0 0 0
-0.70822614 0.86970079 -0.63034475 0 1 0
-0.74505728 0.91492945 -0.62744945 0 2 0
-0.78836232 0.96810794 -0.62709206 0 3 0
-0.82736963 1.0160089 -0.62036437 0 4 0
-0.89089537 1.0940183 -0.62822825 0 5 0
-0.94710708 1.1630462 -0.6264571 0 6 0
-1.0096216 1.239814 -0.6245141 0 7 0
-1.081039 1.3275145 -0.62317032 0 8 0
-1.1562957 1.4199296 -0.61868191 0 9 0
-1.2587174 1.5457034 -0.62218571 0 10 0
-1.3763753 1.6901872 -0.62506098 0 11 0
-1.5159824 1.8616245 -0.62837845 0 12 0
-1.6644284 2.043916 -0.62474221 0 13 0
-1.86217 2.2867424 -0.62685496 0 14 0
-2.0872238 2.5631082 -0.62258554 0 15 0
-2.3940876 2.9399364 -0.62312531 0 16 0
-2.7257447 3.3472109 -0.60663956 0 17 0
-2.8657553 3.5191441 -0.53041589 0 18 0
-2.9598703 3.634717 -0.43752635 0 19 0
-3.0594556 3.7570076 -0.33872092 0 20 0
-3.1675591 3.8897588 -0.23353392 0 21 0
-3.2807395 4.0287442 -0.1207995 0 22 0
-3.4039431 4.1800375 0.00015389551 0 23 0
-3.5474079 4.3562126 0.13093939 0 24 0
-3.7695136 4.6289582 0.27825567 0 25 0
-0.67898345 0.80983776 -0.62674135 0 0 0
-0.7103914 0.84729868 -0.62141412 0 1 0
-0.75114816 0.89591014 -0.62171584 0 2 0
-0.80018598 0.95439851 -0.62556666 0 3 0
-0.85632151 1.0213525 -0.63104653 0 4 0
-0.8998732 1.0732976 -0.62366205 0 5 0
-0.96199709 1.1473941 -0.62537897 0 6 0
-1.032285 1.2312279 -0.62756747 0 7 0
-1.1101686 1.3241214 -0.62897241 0 8 0
-1.1894342 1.418663 -0.62548393 0 9 0
-1.290061 1.5386827 -0.62672824 0 10 0
-1.3983705 1.6678658 -0.62414432 0 11 0
-1.5432192 1.8406298 -0.62868339 0 12 0
-1.6996715 2.0272338 -0.62701505 0 13 0
-1.8917154 2.2562885 -0.62586516 0 14 0
-2.1400712 2.5525076 -0.62738693 0 15 0
-2.4442785 2.9153421 -0.62526387 0 16 0
-2.7966318 3.3356013 -0.61172765 0 17 0
-2.896188 3.454344 -0.52684325 0 18 0
-3.0066562 3.5861018 -0.43680996 0 19 0
-3.1072109 3.7060356 -0.33810052 0 20 0
-3.2194202 3.83987 -0.2332814 0 21 0
-3.3355637 3.9783964 -0.12070906 0 22 0
-3.4493461 4.1141071 0.00015327019 0 23 0
-3.5861623 4.2772908 0.13009673 0 24 0
-3.8223953 4.559051 0.27731383 0 25 0
-0.69089127 0.80048555 -0.62709254 0 0 0
-0.71740586 0.83120608 -0.61707956 0 1 0
-0.766298 0.88785386 -0.62367278 0 2 0
-0.81147736 0.94019991 -0.62380934 0 3 0
-0.86869597 1.006495 -0.62948465 0 4 0
-0.91413182 1.0591382 -0.62297356 0 5 0
-0.97510123 1.129779 -0.62332135 0 6 0
-1.0472003 1.213315 -0.6260131 0 7 0
-1.1225328 1.3005973 -0.62536633 0 8 0
-1.2049803 1.3961231 -0.62308669 0 9 0
-1.3081619 1.5156722 -0.6249184 0 10 0
-1.4246252 1.6506097 -0.62525356 0 11 0
-1.5575894 1.8046657 -0.62395048 0 12 0
-1.7129486 1.9846692 -0.62136978 0 13 0
-1.9205198 2.225167 -0.62479359 0 14 0
-2.1700709 2.5143037 -0.6255672 0 15 0
-2.4904566 2.8855114 -0.62644714 0 16 0
-2.8438997 3.2950203 -0.6116879 0 17 0
-2.943289 3.4101756 -0.52647817 0 18 0
-3.0572808 3.5422494 -0.43675399 0 19 0
-3.1556103 3.6561766 -0.33763796 0 20 0
-3.2706056 3.7894132 -0.23303622 0 21 0
-3.3743522 3.9096169 -0.12007535 0 22 0
-3.4948533 4.049233 0.00015270128 0 23 0
-3.637311 4.2142882 0.12975068 0 24 0
-3.8971276 4.5153189 0.27801827 0 25 0
-0.69872308 0.786515 -0.62391907 0 0 0
-0.74121737 0.83434856 -0.62722456 0 1 0
-0.77823544 0.87601781 -0.62311947 0 2 0
-0.83078933 0.93517488 -0.62830079 0 3 0
-0.87052977 0.97990859 -0.62058634 0 4 0
-0.93606359 1.0536765 -0.62757754 0 5 0
-0.9996981 1.1253064 -0.62868398 0 6 0
-1.071615 1.2062595 -0.63022214 0 7 0
-1.14855 1.2928611 -0.62948674 0 8 0
-1.2291696 1.3836102 -0.62529016 0 9 0
-1.3298794 1.4969739 -0.62499326 0 10 0
-1.4478182 1.6297312 -0.62513065 0 11 0
-1.5853617 1.7845565 -0.62477946 0 12 0
-1.7533768 1.973682 -0.62572324 0 13 0
-1.9489272 2.1938026 -0.62375581 0 14 0
-2.2038717 2.4807799 -0.62501085 0 15 0
-2.5314441 2.8495107 -0.62643355 0 16 0
-2.8694851 3.2300253 -0.60718471 0 17 0
-2.9972479 3.373841 -0.52743793 0 18 0
-3.1022768 3.4920664 -0.4359968 0 19 0
-3.2066319 3.6095333 -0.33753458 0 20 0
-3.3285859 3.7468104 -0.23332231 0 21 0
-3.4341371 3.8656237 -0.12022155 0 22 0
-3.5438879 3.9891641 0.00015233332 0 23 0
-3.6933627 4.1574202 0.12961414 0 24 0
-3.977463 4.4772162 0.279149 0 25 0
-0.71301067 0.77982765 -0.6266458 0 0 0
-0.74510342 0.81492788 -0.62057889 0 1 0
-0.79437667 0.86881852 -0.62602222 0 2 0
-0.8373993 0.91587287 -0.62332171 0 3 0
-0.89081365 0.97429276 -0.62504083 0 4 0
-0.9521752 1.0414045 -0.62832141 0 5 0
-1.0152246 1.1103623 -0.62838906 0 6 0
-1.0774313 1.1783985 -0.62365925 0 7 0
-1.1531166 1.2611763 -0.62203217 0 8 0
-1.2521738 1.3695164 -0.6269564 0 9 0
-1.3478302 1.4741368 -0.62344939 0 10 0
-1.4730524 1.6110938 -0.62600517 0 11 0
-1.6104246 1.7613393 -0.62465721 0 12 0
-1.7796564 1.9464298 -0.62509519 0 13 0
-1.9779223 2.1632755 -0.62306184 0 14 0
-2.2374008 2.4470699 -0.62452239 0 15 0
-2.5713811 2.8123481 -0.62629086 0 16 0
-2.8909557 3.1618702 -0.6020897 0 17 0
-3.0295856 3.3134913 -0.52472878 0 18 0
-3.1495855 3.4447365 -0.43567148 0 19 0
-3.2542489 3.5592079 -0.33714974 0 20 0
-3.3645046 3.6797957 -0.23212427 0 21 0
-3.4839933 3.810482 -0.12004524 0 22 0
-3.6045949 3.9423854 0.0001525016 0 23 0
-3.7745948 4.1283159 0.13037783 0 24 0
-4.0858212 4.468708 0.28223589 0 25 0
-0.71927541 0.76441735 -0.62247181 0 0 0
-0.76134139 0.80912346 -0.62439328 0 1 0
-0.80778646 0.85848337 -0.6268422 0 2 0
-0.84294945 0.89585322 -0.617845 0 3 0
-0.90198135 0.95858997 -0.62318563 0 4 0
-0.96008176 1.0203367 -0.62383765 0 5 0
-1.0218339 1.0859646 -0.62279505 0 6 0
-1.0939473 1.1626037 -0.62352312 0 7 0
-1.1684035 1.2417328 -0.62062722 0 8 0
-1.2746637 1.3546619 -0.62844419 0 9 0
-1.3726234 1.4587697 -0.62519544 0 10 0
-1.4875556 1.5809151 -0.6224885 0 11 0
-1.645004 1.7482449 -0.62829942 0 12 0
-1.8091238 1.922665 -0.62571508 0 13 0
-2.0198917 2.1466608 -0.62653947 0 14 0
-2.2759147 2.418752 -0.62554502 0 15 0
-2.6072919 2.7709262 -0.62531322 0 16 0
-2.9368052 3.1211202 -0.60227287 0 17 0
-3.080565 3.2739022 -0.5253883 0 18 0
-3.192894 3.393281 -0.43489915 0 19 0
-3.2996287 3.5067143 -0.33661661 0 20 0
-3.41535 3.6296983 -0.23202404 0 21 0
-3.5386202 3.7607052 -0.12006044 0 22 0
-3.6621444 3.8919818 0.00015256388 0 23 0
-3.8398166 4.0808048 0.13059972 0 24 0
-4.190156 4.4531317 0.28501087 0 25 0
-0.73640841 0.76051629 -0.62781411 0 0 0
-0.77789563 0.80336165 -0.62847489 0 1 0
-0.82103014 0.84790826 -0.62763703 0 2 0
-0.86965573 0.89812571 -0.62793285 0 3 0
-0.91506791 0.94502461 -0.62281787 0 4 0
-0.98123223 1.0133549 -0.62809163 0 5 0
-1.0467218 1.0809884 -0.62846911 0 6 0
-1.1122917 1.1487049 -0.62454355 0 7 0
-1.2044214 1.2438507 -0.63023758 0 8 0
-1.2997644 1.3423148 -0.63128221 0 9 0
-1.3961667 1.4418731 -0.62645441 0 10 0
-1.525288 1.5752214 -0.62877864 0 11 0
-1.6753632 1.7302097 -0.63037139 0 12 0
-1.828905 1.8887781 -0.62314242 0 13 0
-2.0497992 2.1169035 -0.62635344 0 14 0
-2.3138449 2.3895934 -0.6265052 0 15 0
-2.6427414 2.7292569 -0.62438214 0 16 0
-2.978478 3.0759845 -0.6017282 0 17 0
-3.1146996 3.2166657 -0.52330393 0 18 0
-3.247731 3.3540521 -0.43578467 0 19 0
-3.3648703 3.4750264 -0.33816341 0 20 0
-3.4671206 3.5806241 -0.23203558 0 21 0
-3.590055 3.7075827 -0.11999273 0 22 0
-3.7331102 3.8553214 0.00015320571 0 23 0
-3.9283435 4.0569458 0.13162218 0 24 0
-0.74605507 0.74873233 -0.62683743 0 0 0
-0.7870208 0.78984505 -0.62664926 0 1 0
-0.83216035 0.83514661 -0.62694323 0 2 0
-0.87878519 0.88193876 -0.62534589 0 3 0
-0.92515957 0.92847955 -0.62057757 0 4 0
-1.0031972 1.0067972 -0.63286227 0 5 0
-1.0563965 1.0601875 -0.62510264 0 6 0
-1.1271799 1.1312249 -0.62374765 0 7 0
-1.2093096 1.2136493 -0.62364149 0 8 0
-1.3042288 1.3089091 -0.62428719 0 9 0
-1.4190183 1.4241104 -0.62749738 0 10 0
-1.5361484 1.5416609 -0.62409514 0 11 0
-1.6794058 1.6854323 -0.62275165 0 12 0
-1.8646046 1.8712958 -0.62611574 0 13 0
-2.077913 2.0853696 -0.62575912 0 14 0
-2.3400295 2.3484268 -0.62442958 0 15 0
-2.6851408 2.6947765 -0.6252225 0 16 0
-3.0354836 3.0463765 -0.60437375 0 17 0
-3.1739759 3.1853659 -0.52554899 0 18 0
-3.2951272 3.3069518 -0.4357484 0 19 0
-3.3967242 3.4089134 -0.33642656 0 20 0
-3.5229578 3.5355999 -0.23236182 0 21 0
-3.6346483 3.6476912 -0.11972585 0 22 0
-3.7888842 3.8024807 0.00015324529 0 23 0
-4.0339799 4.0484562 0.13320638 0 24 0
-0.75592589 0.73722845 -0.62620068 0 0 0
-0.79643649 0.77673703 -0.62522995 0 1 0
-0.83708513 0.81638026 -0.62178624 0 2 0
-0.88353676 0.86168295 -0.61988693 0 3 0
-0.94209725 0.91879499 -0.62305367 0 4 0
-1.0021805 0.97739208 -0.62333161 0 5 0
-1.0764805 1.0498544 -0.62803072 0 6 0
-1.1484879 1.1200807 -0.62660295 0 7 0
-1.2306523 1.2002128 -0.62572455 0 8 0
-1.3214577 1.2887722 -0.62364036 0 9 0
-1.4373547 1.4018025 -0.62666893 0 10 0
-1.5641768 1.5254878 -0.62654716 0 11 0
-1.7148414 1.6724257 -0.62695086 0 12 0
-1.8927606 1.8459443 -0.62663388 0 13 0
-2.099545 2.0476139 -0.62338358 0 14 0
-2.3735602 2.3148515 -0.62447155 0 15 0
-2.7270925 2.6596394 -0.62606245 0 16 0
-3.0996788 3.0230098 -0.60847771 0 17 0
-3.2255619 3.1457794 -0.52658105 0 18 0
-3.3367538 3.254221 -0.43504891 0 19 0
-3.4566188 3.3711214 -0.3375451 0 20 0
-3.5797336 3.4911909 -0.2327868 0 21 0
-3.6989944 3.6075017 -0.12013222 0 22 0
-3.8634591 3.7678986 0.00015406444 0 23 0
-4.1199141 4.0180101 0.13413119 0 24 0
-0.77576131 0.73520637 -0.6338498 0 0 0
-0.81443226 0.77185571 -0.63061965 0 1 0
-0.8565076 0.81173146 -0.62751859 0 2 0
-0.90454829 0.8572607 -0.62595564 0 3 0
-0.95540804 0.90546161 -0.62322164 0 4 0
-1.0157657 0.96266389 -0.62314719 0 5 0
-1.0889976 1.0320675 -0.62665069 0 6 0
-1.1666058 1.1056185 -0.62778956 0 7 0
-1.2369283 1.1722648 -0.62032074 0 8 0
-1.343115 1.2729002 -0.62519866 0 9 0
-1.4514793 1.3755995 -0.62417877 0 10 0
-1.572488 1.4902821 -0.62126827 0 11 0
-1.7377237 1.6468798 -0.62663436 0 12 0
-1.9157286 1.8155789 -0.62557024 0 13 0
-2.1351004 2.0234826 -0.62527686 0 14 0
-2.4028599 2.2772441 -0.62354064 0 15 0
-2.7586582 2.6144423 -0.62465417 0 16 0
-3.124248 2.9609201 -0.60491925 0 17 0
-3.2715867 3.1005561 -0.52679569 0 18 0
-3.3844771 3.2075448 -0.4352406 0 19 0
-3.4990933 3.316169 -0.33702314 0 20 0
-3.6201792 3.4309249 -0.23219967 0 21 0
-3.752948 3.5567532 -0.12021878 0 22 0
-3.9231699 3.718076 0.00015430753 0 23 0
-4.2285743 4.0075145 0.1357874 0 24 0
-0.77595246 0.71458745 -0.62558472 0 0 0
-0.83090621 0.76519525 -0.63482982 0 1 0
-0.86248827 0.79427975 -0.62350708 0 2 0
-0.91320634 0.84098685 -0.62355316 0 3 0
-0.97022337 0.89349478 -0.62447947 0 4 0
-1.0275224 0.94626248 -0.62198693 0 5 0
-1.1029081 1.0156864 -0.62622547 0 6 0
-1.1776778 1.0845429 -0.62532985 0 7 0
-1.256411 1.1570497 -0.62172204 0 8 0
-1.3660783 1.2580441 -0.62744147 0 9 0
-1.4728917 1.3564104 -0.62497371 0 10 0
-1.6047221 1.4778152 -0.62558234 0 11 0
-1.7577971 1.6187844 -0.62545347 0 12 0
-1.931994 1.7792052 -0.62250185 0 13 0
-2.1705444 1.9988903 -0.62721372 0 14 0
-2.4454625 2.2520669 -0.62616694 0 15 0
-2.799413 2.5780258 -0.62546283 0 16 0
-3.1898575 2.9375927 -0.60941899 0 17 0
-3.3330414 3.069453 -0.52956253 0 18 0
-3.4367154 3.164928 -0.43608806 0 19 0
-3.5432191 3.2630091 -0.33674023 0 20 0
-3.6777892 3.3869369 -0.23276152 0 21 0
-3.808809 3.5075953 -0.1203876 0 22 0
-4.0050664 3.6883318 0.00015543633 0 23 0
-0.79485226 0.71124035 -0.63254976 0 0 0
-0.83424151 0.74648613 -0.62915021 0 1 0
-0.87473249 0.78271782 -0.62419558 0 2 0
-0.92813402 0.83050191 -0.62556505 0 3 0
-0.98929578 0.88523 -0.62853551 0 4 0
-1.0469885 0.93685389 -0.62558889 0 5 0
-1.1153302 0.99800658 -0.62510371 0 6 0
-1.1953856 1.0696408 -0.62653875 0 7 0
-1.2946814 1.1584916 -0.63238955 0 8 0
-1.3755736 1.2308745 -0.6236468 0 9 0
-1.4938811 1.336737 -0.6256972 0 10 0
-1.6233233 1.452563 -0.6246646 0 11 0
-1.7789266 1.5917981 -0.62480068 0 12 0
-1.9710863 1.7637441 -0.62689924 0 13 0
-2.1945336 1.9636866 -0.62595963 0 14 0
-2.4784923 2.2177753 -0.626432 0 15 0
-2.8365512 2.5381694 -0.62557936 0 16 0
-3.2070248 2.8696721 -0.60478956 0 17 0
-3.3776731 3.0223696 -0.52972615 0 18 0
-3.4916081 3.1243196 -0.43733412 0 19 0
-3.6148124 3.2345638 -0.33910954 0 20 0
-3.731111 3.3386288 -0.23308791 0 21 0
-3.8784704 3.4704871 -0.12100694 0 22 0
-4.092659 3.6621449 0.00015678541 0 23 0
-0.79315007 0.68953305 -0.62327695 0 0 0
-0.83974761 0.73004311 -0.6253581 0 1 0
-0.8812868 0.76615566 -0.62098366 0 2 0
-0.95254678 0.82810616 -0.63396537 0 3 0
-0.99424046 0.864353 -0.62375283 0 4 0
-1.0608928 0.92229789 -0.62594485 0 5 0
-1.1287838 0.98131973 -0.6247077 0 6 0
-1.2065904 1.0489616 -0.62447816 0 7 0
-1.30006 1.1302203 -0.62705064 0 8 0
-1.3990358 1.2162659 -0.62632704 0 9 0
-1.5093164 1.3121395 -0.62423182 0 10 0
-1.6445874 1.4297388 -0.62490827 0 11 0
-1.8036164 1.5679922 -0.62552565 0 12 0
-1.997563 1.7366017 -0.62735021 0 13 0
-2.220593 1.930495 -0.62544698 0 14 0
-2.5071356 2.1796038 -0.62572235 0 15 0
-2.8779697 2.5019922 -0.6267516 0 16 0
-3.2800341 2.8515308 -0.61079818 0 17 0
-3.42156 2.9745679 -0.52987742 0 18 0
-3.5284083 3.0674574 -0.4363994 0 19 0
-3.648448 3.1718152 -0.3379713 0 20 0
-3.7988484 3.3025672 -0.23434246 0 21 0
-3.9470499 3.4314077 -0.12160175 0 22 0
-4.1788797 3.6329517 0.00015808016 0 23 0
-0.80466712 0.67957169 -0.62461966 0 0 0
-0.85283107 0.72024792 -0.62735981 0 1 0
-0.89368761 0.75475281 -0.6220457 0 2 0
-0.96142602 0.81196046 -0.63207525 0 3 0
-1.0068492 0.85032201 -0.62396348 0 4 0
-1.0743594 0.90733695 -0.6261636 0 5 0
-1.1534418 0.97412497 -0.63057303 0 6 0
-1.2289997 1.0379366 -0.62832284 0 7 0
-1.3219477 1.1164346 -0.62983555 0 8 0
-1.4188597 1.1982805 -0.62745911 0 9 0
-1.5295184 1.2917359 -0.6248762 0 10 0
-1.6609089 1.4027001 -0.62341726 0 11 0
-1.8311653 1.546488 -0.62733883 0 12 0
-2.0158353 1.7024487 -0.62537175 0 13 0
-2.2528775 1.9026397 -0.62680548 0 14 0
-2.5365443 2.1422071 -0.62534535 0 15 0
-2.9067454 2.4548559 -0.62530208 0 16 0
-3.331265 2.8133786 -0.6127767 0 17 0
-3.460047 2.9221399 -0.52930611 0 18 0
-3.5719628 3.0166569 -0.43640116 0 19 0
-3.7165735 3.1387861 -0.34008545 0 20 0
-3.8570607 3.2574327 -0.23503317 0 21 0
-4.0053186 3.3826423 -0.12189277 0 22 0
-4.2584081 3.596386 0.00015912502 0 23 0
-0.82148278 0.67386895 -0.63012099 0 0 0
-0.85243064 0.6992557 -0.6196391 0 1 0
-0.9162181 0.75158107 -0.63017547 0 2 0
-0.97485101 0.79967815 -0.63331133 0 3 0
-1.0205418 0.83715862 -0.62495917 0 4 0
-1.0942553 0.89762646 -0.63020664 0 5 0
-1.1572673 0.94931573 -0.62517202 0 6 0
-1.2369835 1.0147076 -0.62491518 0 7 0
-1.314635 1.0784057 -0.6189338 0 8 0
-1.4258289 1.169619 -0.62307382 0 9 0
-1.5412722 1.264318 -0.62222105 0 10 0
-1.6829101 1.3805047 -0.62419462 0 11 0
-1.8382932 1.5079668 -0.62232244 0 12 0
-2.0363076 1.6703995 -0.62424159 0 13 0
-2.2743762 1.8656892 -0.62529308 0 14 0
-2.561475 2.1011987 -0.62401313 0 15 0
-2.9456851 2.4163692 -0.62617439 0 16 0
-3.3588774 2.7553141 -0.61053884 0 17 0
-3.5066762 2.8765547 -0.5300864 0 18 0
-3.6194539 2.9690673 -0.43696648 0 19 0
-3.7586565 3.0832562 -0.33986315 0 20 0
-3.9088607 3.20647 -0.23536885 0 21 0
-4.0920534 3.3567443 -0.12305754 0 22 0
-4.3402462 3.5603392 0.0001602624 0 23 0
-0.82683438 0.65869009 -0.62692988 0 0 0
-0.86936301 0.69257009 -0.62467748 0 1 0
-0.92493618 0.73684198 -0.62885326 0 2 0
-0.97870046 0.7796728 -0.62849778 0 3 0
-1.0408818 0.82920897 -0.63008219 0 4 0
-1.0921429 0.87004578 -0.62175429 0 5 0
-1.1747364 0.93584305 -0.62730855 0 6 0
-1.248975 0.99498463 -0.62371457 0 7 0
-1.3442669 1.0708979 -0.62560385 0 8 0
-1.4472058 1.1529033 -0.62514007 0 9 0
-1.5653179 1.2469962 -0.62465876 0 10 0
-1.6985213 1.3531115 -0.62273747 0 11 0
-1.8685294 1.488547 -0.62528151 0 12 0
-2.0504971 1.6335098 -0.62136018 0 13 0
-2.3026378 1.8343755 -0.62578034 0 14 0
-2.5980124 2.0696831 -0.62563312 0 15 0
-2.984864 2.3778648 -0.62720352 0 16 0
-3.3784575 2.6914175 -0.60703331 0 17 0
-3.5470777 2.825747 -0.53002536 0 18 0
-3.6638052 2.9187372 -0.43723246 0 19 0
-3.8198514 3.0430498 -0.34142306 0 20 0
-3.9751754 3.1667874 -0.23660833 0 21 0
-4.1582603 3.3126404 -0.12361 0 22 0
-4.4318213 3.5305703 0.00016176124 0 23 0
-0.84450036 0.65322727 -0.63317043 0 0 0
-0.88729739 0.68633109 -0.63044077 0 1 0
-0.93305093 0.72172177 -0.62728268 0 2 0
-0.97776765 0.75631046 -0.62088329 0 3 0
-1.0338959 0.79972607 -0.61886084 0 4 0
-1.1124285 0.86047173 -0.62622702 0 5 0
-1.1923823 0.92231655 -0.62961739 0 6 0
-1.2555357 0.97116613 -0.61998552 0 7 0
-1.356112 1.0489627 -0.6240651 0 8 0
-1.4583613 1.1280532 -0.62292033 0 9 0
-1.5906494 1.2303791 -0.62767547 0 10 0
-1.7240341 1.3335531 -0.62502909 0 11 0
-1.8870405 1.4596398 -0.62442064 0 12 0
-2.0834281 1.611547 -0.6242854 0 13 0
-2.3291454 1.8016112 -0.62591195 0 14 0
-2.6355567 2.0386226 -0.62758315 0 15 0
-3.0081036 2.3267903 -0.62502456 0 16 0
-3.4018252 2.6313367 -0.60440278 0 17 0
-3.5699522 2.7613845 -0.52748334 0 18 0
-3.6923146 2.8560326 -0.43571156 0 19 0
-3.8513463 2.9790449 -0.34039199 0 20 0
-4.0363994 3.1221845 -0.23756815 0 21 0
-4.2343326 3.2752876 -0.12446501 0 22 0
-4.5283961 3.5027478 0.00016343949 0 23 0
-0.8497237 0.63804096 -0.63017493 0 0 0
-0.89644408 0.67312241 -0.6300295 0 1 0
-0.94062269 0.70629525 -0.62551254 0 2 0
-0.99577439 0.74770755 -0.62545758 0 3 0
-1.0553696 0.79245645 -0.62486094 0 4 0
-1.1157624 0.8378042 -0.62128943 0 5 0
-1.1955321 0.89770174 -0.62443173 0 6 0
-1.2867661 0.9662075 -0.62851357 0 7 0
-1.3662304 1.0258757 -0.62190038 0 8 0
-1.4881297 1.1174076 -0.6287396 0 9 0
-1.599255 1.2008493 -0.62422472 0 10 0
-1.7394465 1.3061165 -0.62377512 0 11 0
-1.9079068 1.4326099 -0.62447602 0 12 0
-2.1080101 1.5828637 -0.62479842 0 13 0
-2.3427472 1.7591231 -0.62273693 0 14 0
-2.6469383 1.9875344 -0.62345529 0 15 0
-3.0334511 2.2777591 -0.6234532 0 16 0
-3.4386585 2.5820217 -0.6043188 0 17 0
-3.5984333 2.7019935 -0.52592325 0 18 0
