# .PCD v0.7 - Point Cloud Data file format
VERSION 0.7
FIELDS x y z intensity ring time
SIZE 4 4 4 4 2 4
TYPE F F F F U F
COUNT 1 1 1 1 1 1
WIDTH 1199
HEIGHT 1
VIEWPOINT 0 0 0 1 0 0 0
POINTS 1199
DATA ascii
-1.5351584 1.8310156 -0.62539953 0 12 0
-1.6877235 2.0129831 -0.62260741 0 13 0
-1.8907529 2.2551405 -0.62554669 0 14 0
-2.133208 2.5443218 -0.62537485 0 15 0
-2.4378719 2.9077008 -0.62362498 0 16 0
-2.7967503 3.3357425 -0.61175358 0 17 0
-2.909862 3.4706533 -0.52933067 0 18 0
-3.0021646 3.5807445 -0.43615738 0 19 0
-3.1021154 3.6999581 -0.33754608 0 20 0
-3.2181396 3.8383424 -0.23318861 0 21 0
-3.3244617 3.9651551 -0.1203073 0 22 0
-3.4513948 4.1165504 0.00015336122 0 23 0
-3.5906172 4.2826042 0.13025834 0 24 0
-3.8212504 4.5576854 0.27723077 0 25 0
-0.68312567 0.79148811 -0.62004405 0 0 0
-0.7392624 0.85652971 -0.63587958 0 1 0
-0.7698279 0.89194369 -0.62654567 0 2 0
-0.80912524 0.93747467 -0.62200123 0 3 0
-0.8502782 0.98515564 -0.61613858 0 4 0
-0.91830838 1.0639772 -0.62581986 0 5 0
-0.96981764 1.1236573 -0.61994392 0 6 0
-1.0460217 1.2119493 -0.62530845 0 7 0
-1.1218719 1.2998316 -0.62499815 0 8 0
-1.2160829 1.408987 -0.62882781 0 9 0
-1.3130932 1.5213857 -0.6272741 0 10 0
-1.4295171 1.6562778 -0.62740058 0 11 0
-1.5665922 1.8150967 -0.62755692 0 12 0
-1.7227339 1.9960067 -0.62491941 0 13 0
-1.9204961 2.2251394 -0.62478584 0 14 0
-2.1661735 2.509788 -0.62444365 0 15 0
-2.4846611 2.8787963 -0.62498933 0 16 0
-2.8384113 3.2886612 -0.61050743 0 17 0
-2.9495993 3.4174864 -0.5276069 0 18 0
-3.0692232 3.5560861 -0.43846002 0 19 0
-3.1533582 3.6535673 -0.33739698 0 20 0
-3.2556579 3.7720945 -0.23197117 0 21 0
-3.3784249 3.9143357 -0.12022027 0 22 0
-3.483989 4.0366449 0.00015222658 0 23 0
-3.6282227 4.2037582 0.12942648 0 24 0
-3.9034348 4.5226264 0.27846822 0 25 0
-0.70394754 0.79239595 -0.62858421 0 0 0
-0.74631977 0.84009212 -0.63154227 0 1 0
-0.79308933 0.89273804 -0.63501275 0 2 0
-0.83320743 0.93789685 -0.63012952 0 3 0
-0.88374591 0.99478531 -0.63000792 0 4 0
-0.938914 1.0568851 -0.62948859 0 5 0
-0.99491495 1.1199223 -0.62567598 0 6 0
-1.0640109 1.1976998 -0.62575006 0 7 0
-1.1383982 1.2814336 -0.62392277 0 8 0
-1.2329029 1.3878126 -0.62718934 0 9 0
-1.3335097 1.5010601 -0.62669933 0 10 0
-1.4439435 1.6253697 -0.62345767 0 11 0
-1.5822043 1.7810024 -0.62353516 0 12 0
-1.7432059 1.9622332 -0.62209356 0 13 0
-1.94715 2.191802 -0.62318701 0 14 0
-2.210007 2.4876862 -0.62675083 0 15 0
-2.5253363 2.8426354 -0.6249221 0 16 0
-2.8674259 3.2277074 -0.606749 0 17 0
-2.9903467 3.3660727 -0.52622348 0 18 0
-3.1038682 3.4938576 -0.43622047 0 19 0
-3.2104704 3.6138542 -0.33793861 0 20 0
-3.311259 3.7273064 -0.23210774 0 21 0
-3.4270546 3.8576512 -0.1199736 0 22 0
-3.5378203 3.9823344 0.00015207252 0 23 0
-3.7045174 4.1699762 0.13000561 0 24 0
-3.9819808 4.4823017 0.27946609 0 25 0
-0.71291119 0.77971888 -0.62655842 0 0 0
-0.75150484 0.8219291 -0.6259104 0 1 0
-0.79912835 0.87401551 -0.62976688 0 2 0
-0.84511781 0.92431474 -0.629067 0 3 0
-0.89230007 0.97591847 -0.62608379 0 4 0
-0.94814575 1.0369976 -0.62566245 0 5 0
-1.0149827 1.1100978 -0.62823933 0 6 0
-1.0813427 1.1826764 -0.62592334 0 7 0
-1.1582509 1.2667918 -0.62480181 0 8 0
-1.2619292 1.3801858 -0.63184083 0 9 0
-1.3537728 1.4806362 -0.62619817 0 10 0
-1.473448 1.6115265 -0.62617332 0 11 0
-1.6119336 1.7629896 -0.62524253 0 12 0
-1.7719765 1.9380302 -0.6223976 0 13 0
-1.9809269 2.1665616 -0.6240083 0 14 0
-2.238071 2.4478028 -0.62470943 0 15 0
-2.5599077 2.7997994 -0.62349635 0 16 0
-2.9035575 3.175653 -0.60471427 0 17 0
-3.0376549 3.3223169 -0.52612638 0 18 0
-3.1504743 3.4457088 -0.43579441 0 19 0
-3.2458889 3.5500646 -0.33628362 0 20 0
-3.3566363 3.67119 -0.23158142 0 21 0
-3.4803929 3.8065443 -0.11992119 0 22 0
-3.6069734 3.9449868 0.00015260222 0 23 0
-3.7704713 4.123806 0.1302354 0 24 0
-4.0830364 4.465662 0.28204355 0 25 0
-0.7220915 0.76741022 -0.62490892 0 0 0
-0.75872427 0.80634201 -0.62224692 0 1 0
-0.80724657 0.85790956 -0.62642318 0 2 0
-0.84217668 0.89503199 -0.61727864 0 3 0
-0.90442383 0.96118569 -0.62487316 0 4 0
-0.96550024 1.0260953 -0.62735838 0 5 0
-1.0323513 1.0971419 -0.62920523 0 6 0
-1.0958079 1.1645812 -0.6245836 0 7 0
-1.170155 1.2435943 -0.62155759 0 8 0
-1.269587 1.3492668 -0.62594128 0 9 0
-1.3805127 1.4671541 -0.62878877 0 10 0
-1.4927719 1.5864587 -0.62467128 0 11 0
-1.6260569 1.7281088 -0.6210627 0 12 0
-1.8141429 1.927999 -0.627451 0 13 0
-2.0098913 2.1360328 -0.62343746 0 14 0
-2.2762868 2.4191473 -0.62564731 0 15 0
-2.6026902 2.766036 -0.62420964 0 16 0
-2.9356496 3.1198919 -0.60203588 0 17 0
-3.0714607 3.2642267 -0.5238356 0 18 0
-3.1894341 3.3896041 -0.43442792 0 19 0
-3.3056874 3.5131533 -0.33723468 0 20 0
-3.4118552 3.6259844 -0.23178664 0 21 0
-3.5274267 3.7488091 -0.11968066 0 22 0
-3.670965 3.9013557 0.00015293134 0 23 0
-3.8423162 4.0834613 0.13068473 0 24 0
-4.1899786 4.4529428 0.2849988 0 25 0
-0.73535317 0.75942653 -0.6269145 0 0 0
-0.7740708 0.79941165 -0.62538481 0 1 0
-0.81050521 0.83703876 -0.61959124 0 2 0
-0.86250257 0.89073837 -0.62276793 0 3 0
-0.91614711 0.9461391 -0.62355238 0 4 0
-0.9695192 1.0012584 -0.62059402 0 5 0
-1.0414778 1.0755727 -0.62532055 0 6 0
-1.1191761 1.1558148 -0.62840909 0 7 0
-1.2042722 1.2436966 -0.6301595 0 8 0
-1.2857985 1.3278918 -0.62449914 0 9 0
-1.3908695 1.4364026 -0.62407762 0 10 0
-1.5138165 1.5633745 -0.62404966 0 11 0
-1.6632465 1.7176963 -0.62581241 0 12 0
-1.8430629 1.9033993 -0.62796628 0 13 0
-2.0424855 2.1093504 -0.62411857 0 14 0
-2.3073046 2.382839 -0.62473428 0 15 0
-2.6456773 2.7322891 -0.62507576 0 16 0
-2.9655998 3.0626848 -0.59912652 0 17 0
-3.1230352 3.2252743 -0.5247044 0 18 0
-3.2383635 3.344378 -0.43452772 0 19 0
-3.3529816 3.4627485 -0.3369686 0 20 0
-3.4681356 3.5816722 -0.23210351 0 21 0
-3.5907261 3.708276 -0.12001516 0 22 0
-3.7314937 3.853652 0.00015313936 0 23 0
-3.92291 4.0513349 0.13144012 0 24 0
-0.74925709 0.75194579 -0.62952775 0 0 0
-0.78334713 0.78615814 -0.62372416 0 1 0
-0.83343214 0.83642292 -0.62790138 0 2 0
-0.88238543 0.88555187 -0.62790781 0 3 0
-0.93514574 0.93850154 -0.62727606 0 4 0
-0.99519998 0.99877125 -0.62781727 0 5 0
-1.04968 1.0534468 -0.62112826 0 6 0
-1.1292179 1.1332701 -0.62487543 0 7 0
-1.2140632 1.2184199 -0.62609297 0 8 0
-1.3149595 1.3196783 -0.62942356 0 9 0
-1.4119418 1.4170085 -0.62436807 0 10 0
-1.5404584 1.5459864 -0.62584621 0 11 0
-1.6907784 1.6968458 -0.6269688 0 12 0
-1.8656614 1.8723564 -0.62647063 0 13 0
-2.0841596 2.0916386 -0.62764031 0 14 0
-2.3490503 2.3574798 -0.62683672 0 15 0
-2.6847925 2.694427 -0.62514138 0 16 0
-3.0274413 3.0383053 -0.60277247 0 17 0
-3.1641445 3.1754992 -0.52392107 0 18 0
-3.2982395 3.3100753 -0.43616 0 19 0
-3.4006341 3.4128375 -0.33681381 0 20 0
-3.5269163 3.5395727 -0.23262292 0 21 0
-3.6414428 3.6545103 -0.11994966 0 22 0
-3.7955036 3.8091238 0.00015351301 0 23 0
-4.0255775 4.0400238 0.13292894 0 24 0
-0.74974924 0.73120463 -0.62108403 0 0 0
-0.79409426 0.77445275 -0.62339121 0 1 0
-0.84790009 0.82692778 -0.62981963 0 2 0
-0.89461714 0.87248927 -0.62766093 0 3 0
-0.95436805 0.93076229 -0.63116896 0 4 0
-0.99218118 0.9676401 -0.61711228 0 5 0
-1.0731519 1.0466081 -0.62608874 0 6 0
-1.1457682 1.1174283 -0.62511909 0 7 0
-1.238398 1.2077669 -0.62966287 0 8 0
-1.32332 1.2905884 -0.62451923 0 9 0
-1.4321641 1.3967403 -0.62440592 0 10 0
-1.5646123 1.5259125 -0.62672162 0 11 0
-1.7049901 1.6628182 -0.62334925 0 12 0
-1.8840052 1.8374054 -0.62373525 0 13 0
-2.0982866 2.0463867 -0.62300992 0 14 0
-2.3796494 2.3207901 -0.62607366 0 15 0
-2.7235987 2.6562321 -0.62526041 0 16 0
-3.0866346 3.0102885 -0.6059171 0 17 0
-3.2144275 3.1349204 -0.52476335 0 18 0
-3.32795 3.245635 -0.43390107 0 19 0
-3.4505272 3.3651803 -0.33695021 0 20 0
-3.5628588 3.4747336 -0.23168945 0 21 0
-3.7074943 3.6157916 -0.12040827 0 22 0
-3.8617041 3.766187 0.00015399446 0 23 0
-4.1186314 4.0167594 0.13408943 0 24 0
-0.76603484 0.72598839 -0.62590259 0 0 0
-0.80411202 0.76207501 -0.62262863 0 1 0
-0.85084242 0.80636245 -0.62336802 0 2 0
-0.89604592 0.84920281 -0.62007189 0 3 0
-0.94778812 0.89824003 -0.61825109 0 4 0
-1.0192595 0.96597511 -0.62529057 0 5 0
-1.0918126 1.0347353 -0.62827051 0 6 0
-1.1640731 1.1032182 -0.62642664 0 7 0
-1.2432327 1.1782396 -0.62348241 0 8 0
-1.3372506 1.2673423 -0.62246889 0 9 0
-1.4540468 1.3780328 -0.62528282 0 10 0
-1.5872065 1.5042312 -0.62708336 0 11 0
-1.7452114 1.653976 -0.62933445 0 12 0
-1.9150159 1.8149036 -0.62533754 0 13 0
-2.1347778 2.0231767 -0.62518239 0 14 0
-2.4083819 2.2824774 -0.6249736 0 15 0
-2.7558334 2.6117651 -0.6240145 0 16 0
-3.1306517 2.9669888 -0.60615915 0 17 0
-3.2740505 3.102891 -0.52719241 0 18 0
-3.3885803 3.2114336 -0.43576831 0 19 0
-3.5031145 3.3199801 -0.33741045 0 20 0
-3.6182995 3.4291437 -0.23207912 0 21 0
-3.7483306 3.552377 -0.12007086 0 22 0
-3.9330261 3.7274172 0.00015469521 0 23 0
-4.2319932 4.0107546 0.13589719 0 24 0
-0.77248603 0.7113952 -0.6227901 0 0 0
-0.8237645 0.75861835 -0.62937343 0 1 0
-0.86114126 0.79303926 -0.62253332 0 2 0
-0.91292965 0.84073204 -0.62336427 0 3 0
-0.97327781 0.89630765 -0.62644541 0 4 0
-1.0279052 0.94661492 -0.62221855 0 5 0
-1.1016183 1.0144986 -0.62549311 0 6 0
-1.1649152 1.0727897 -0.61855316 0 7 0
-1.2743489 1.173569 -0.63059843 0 8 0
-1.3660859 1.2580512 -0.62744498 0 9 0
-1.4717561 1.3553646 -0.62449187 0 10 0
-1.60102 1.4744058 -0.62413907 0 11 0
-1.7434559 1.6055773 -0.6203506 0 12 0
-1.9393939 1.7860199 -0.62488616 0 13 0
-2.1678843 1.9964405 -0.62644506 0 14 0
-2.4322701 2.2399178 -0.62278897 0 15 0
-2.7977679 2.5765109 -0.62509525 0 16 0
-3.1876733 2.9355812 -0.6090017 0 17 0
-3.3270154 3.0639036 -0.5286051 0 18 0
-3.4344094 3.1628044 -0.43579546 0 19 0
-3.5568345 3.2755477 -0.33803421 0 20 0
-3.6834831 3.3921804 -0.23312187 0 21 0
-3.8111 3.5097051 -0.12046 0 22 0
-4.0106759 3.6934981 0.00015565405 0 23 0
-0.79183775 0.70854294 -0.63015079 0 0 0
-0.83299583 0.74537152 -0.62821078 0 1 0
-0.87279314 0.78098243 -0.62281168 0 2 0
-0.93036526 0.83249849 -0.62706894 0 3 0
-0.98347241 0.88001913 -0.62483573 0 4 0
-1.0460019 0.93597102 -0.6249994 0 5 0
-1.107578 0.99106985 -0.62075889 0 6 0
-1.1948831 1.0691912 -0.62627542 0 7 0
-1.2869813 1.1516014 -0.62862843 0 8 0
-1.377883 1.2329409 -0.62469381 0 9 0
-1.4856505 1.3293723 -0.6222499 0 10 0
-1.6270708 1.4559163 -0.62610662 0 11 0
-1.7740661 1.5874488 -0.62309361 0 12 0
-1.9710435 1.7637058 -0.62688565 0 13 0
-2.1939619 1.9631749 -0.62579656 0 14 0
-2.4741588 2.2138975 -0.62533671 0 15 0
-2.8253021 2.5281036 -0.62309843 0 16 0
-3.2189264 2.8803217 -0.60703397 0 17 0
-3.3754098 3.0203443 -0.5293712 0 18 0
-3.4895439 3.1224723 -0.43707556 0 19 0
-3.6101725 3.230412 -0.33867425 0 20 0
-3.7239521 3.3322227 -0.23264068 0 21 0
-3.8852377 3.4765425 -0.12121806 0 22 0
-4.1028585 3.6712716 0.00015717614 0 23 0
-0.78626943 0.68355131 -0.61786997 0 0 0
-0.83477914 0.72572374 -0.62165809 0 1 0
-0.8872388 0.77133006 -0.62517756 0 2 0
-0.93262666 0.81078845 -0.62070763 0 3 0
-1.0033798 0.87229836 -0.62948656 0 4 0
-1.0611156 0.92249161 -0.62607634 0 5 0
-1.1309665 0.9832173 -0.62591571 0 6 0
-1.2111057 1.052887 -0.62681508 0 7 0
-1.299158 1.1294361 -0.62661558 0 8 0
-1.386596 1.2054513 -0.62075788 0 9 0
-1.5172185 1.3190093 -0.6275 0 10 0
-1.6533223 1.4373325 -0.62822735 0 11 0
-1.7923771 1.5582212 -0.62162763 0 12 0
-1.987797 1.7281114 -0.62428313 0 13 0
-2.2252576 1.9345503 -0.62676078 0 14 0
-2.4992554 2.1727531 -0.62375557 0 15 0
-2.8772018 2.5013244 -0.62658429 0 16 0
-3.280611 2.8520324 -0.61090565 0 17 0
-3.4201477 2.97334 -0.52965868 0 18 0
-3.5374548 3.0753222 -0.43751827 0 19 0
-3.6534421 3.176157 -0.33843392 0 20 0
-3.8033361 3.306469 -0.2346193 0 21 0
-3.9425855 3.4275267 -0.12146422 0 22 0
-4.1871419 3.6401343 0.00015839271 0 23 0
-0.80144298 0.67684877 -0.62211692 0 0 0
-0.85522878 0.72227287 -0.62912357 0 1 0
-0.90662962 0.76568282 -0.63105386 0 2 0
-0.94394863 0.79720008 -0.62058496 0 3 0
-1.0107093 0.85358196 -0.62635565 0 4 0
-1.0869193 0.91794431 -0.63348389 0 5 0
-1.1416208 0.96414173 -0.6241107 0 6 0
-1.2196268 1.0300207 -0.62353092 0 7 0
-1.3098003 1.1061755 -0.62404794 0 8 0
-1.4175231 1.1971517 -0.62686807 0 9 0
-1.5295776 1.2917858 -0.62490034 0 10 0
-1.6676376 1.4083827 -0.62594283 0 11 0
-1.8276553 1.5435237 -0.6261363 0 12 0
-2.0144374 1.7012682 -0.62493807 0 13 0
-2.2528074 1.9025806 -0.62678599 0 14 0
-2.5438864 2.1484079 -0.62715542 0 15 0
-2.9110699 2.458508 -0.62623233 0 16 0
-3.3238554 2.807121 -0.61141372 0 17 0
-3.457299 2.9198191 -0.52888572 0 18 0
-3.5698967 3.0149121 -0.43614876 0 19 0
-3.7153819 3.1377797 -0.33997643 0 20 0
-3.8588133 3.258913 -0.23513997 0 21 0
-4.0221391 3.396848 -0.12240467 0 22 0
-4.2711186 3.6071205 0.00015959996 0 23 0
-0.81535929 0.66884583 -0.62542391 0 0 0
-0.86079973 0.70612097 -0.62572265 0 1 0
-0.9112072 0.74747062 -0.62672901 0 2 0
-0.96681654 0.79308742 -0.62809175 0 3 0
-1.0074782 0.82644254 -0.61695933 0 4 0
-1.0836021 0.88888752 -0.62407124 0 5 0
-1.1513571 0.94446748 -0.62197918 0 6 0
-1.2414536 1.0183744 -0.62717348 0 7 0
-1.3368024 1.0965898 -0.62937021 0 8 0
-1.4336314 1.1760194 -0.62648338 0 9 0
-1.5493277 1.270926 -0.62547314 0 10 0
-1.6808382 1.3788052 -0.62342608 0 11 0
-1.8500886 1.5176426 -0.62631559 0 12 0
-2.0326865 1.6674291 -0.62313151 0 13 0
-2.279038 1.8695133 -0.62657475 0 14 0
-2.5662055 2.1050792 -0.62516546 0 15 0
-2.9281921 2.4020197 -0.62245584 0 16 0
-3.374115 2.7678139 -0.61330855 0 17 0
-3.4979358 2.8693848 -0.52876514 0 18 0
-3.6194372 2.9690537 -0.43696448 0 19 0
-3.7678838 3.0908256 -0.3406975 0 20 0
-3.9036219 3.2021725 -0.23505339 0 21 0
-4.1010284 3.3641067 -0.12332745 0 22 0
-4.3509784 3.5691426 0.00016065867 0 23 0
-0.82514864 0.65734714 -0.62565166 0 0 0
-0.86665457 0.69041252 -0.62273139 0 1 0
-0.92031324 0.73315918 -0.62571019 0 2 0
-0.97482818 0.77658802 -0.62601107 0 3 0
-1.0349498 0.82448334 -0.62649143 0 4 0
-1.1009855 0.8770901 -0.62678832 0 5 0
-1.1710376 0.93289638 -0.62533337 0 6 0
-1.2586044 1.0026557 -0.62852323 0 7 0
-1.3325177 1.0615382 -0.62013602 0 8 0
-1.4381925 1.145723 -0.62124664 0 9 0
-1.5790372 1.2579256 -0.63013363 0 10 0
-1.7095644 1.3619089 -0.62678629 0 11 0
-1.8667208 1.4871061 -0.62467629 0 12 0
-2.0654557 1.6454264 -0.62589306 0 13 0
-2.2963493 1.8293657 -0.62407124 0 14 0
-2.5958903 2.0679922 -0.62512207 0 15 0
-2.9828022 2.3762221 -0.62677026 0 16 0
-3.3719218 2.6862106 -0.60585898 0 17 0
-3.5410542 2.8209486 -0.52912527 0 18 0
-3.6560159 2.9125319 -0.4363029 0 19 0
-3.8008204 3.027889 -0.33972204 0 20 0
-3.9695363 3.1622949 -0.23627268 0 21 0
-4.1546698 3.3097799 -0.12350326 0 22 0
-4.4385886 3.5359614 0.00016200825 0 23 0
-0.83339769 0.64463925 -0.62484616 0 0 0
-0.88354552 0.683429 -0.62777501 0 1 0
-0.93407381 0.72251302 -0.6279704 0 2 0
-0.99526274 0.76984304 -0.6319927 0 3 0
-1.0549899 0.81604248 -0.63148713 0 4 0
-1.1068722 0.85617381 -0.62309909 0 5 0
-1.1764905 0.91002411 -0.62122595 0 6 0
-1.2679127 0.98073989 -0.62609732 0 7 0
-1.3553102 1.0483425 -0.62369609 0 8 0
-1.4576517 1.1275043 -0.6226173 0 9 0
-1.5804082 1.2224574 -0.62363428 0 10 0
-1.7329559 1.3404542 -0.62826365 0 11 0
-1.8925534 1.463904 -0.62624484 0 12 0
-2.09235 1.618448 -0.62695873 0 13 0
-2.3282354 1.8009073 -0.62566739 0 14 0
-2.6371865 2.0398831 -0.62797123 0 15 0
-3.0114732 2.3293967 -0.62572467 0 16 0
-3.4035668 2.6326842 -0.60471225 0 17 0
-3.5752516 2.7654836 -0.52826637 0 18 0
-3.7083306 2.8684211 -0.43760154 0 19 0
-3.8364725 2.9675398 -0.33907741 0 20 0
-4.0287399 3.1162601 -0.23711737 0 21 0
-4.2316251 3.2731931 -0.12438542 0 22 0
-4.5177517 3.4945142 0.0001630553 0 23 0
-0.83996731 0.63071507 -0.62293935 0 0 0
-0.88795161 0.66674554 -0.62406093 0 1 0
-0.94374907 0.70864272 -0.62759155 0 2 0
-0.99328947 0.74584168 -0.62389678 0 3 0
-1.0561885 0.79307127 -0.62534577 0 4 0
-1.129145 0.847853 -0.62874126 0 5 0
-1.1994089 0.90061271 -0.62645662 0 6 0
-1.2672391 0.95154518 -0.61897576 0 7 0
-1.3780355 1.0347401 -0.62727404 0 8 0
-1.4786633 1.1102995 -0.62473994 0 9 0
-1.6035582 1.2040806 -0.62590438 0 10 0
-1.7438238 1.3094033 -0.62534487 0 11 0
-1.8991987 1.4260712 -0.62162572 0 12 0
-2.1144476 1.5876975 -0.62670642 0 13 0
-2.3544564 1.7679154 -0.62584943 0 14 0
-2.6495352 1.9894843 -0.62406695 0 15 0
-3.0324769 2.2770278 -0.62325299 0 16 0
-3.4392588 2.5824723 -0.6044243 0 17 0
-3.5966482 2.7006528 -0.52566236 0 18 0
-3.7327292 2.8028336 -0.43570191 0 19 0
-3.8821099 2.9150007 -0.33938852 0 20 0
-4.0788155 3.0627029 -0.23746015 0 21 0
-4.3015079 3.2299185 -0.12506783 0 22 0
-4.6171594 3.4669347 0.00016483522 0 23 0
-0.85898089 0.62596929 -0.63033092 0 0 0
-0.89468861 0.65199071 -0.62217319 0 1 0
-0.94564784 0.68912649 -0.62223107 0 2 0
-1.0082192 0.73472446 -0.62660468 0 3 0
-1.0664023 0.77712452 -0.62474328 0 4 0
-1.1360084 0.82784879 -0.62590075 0 5 0
-1.2028608 0.87656653 -0.62164271 0 6 0
-1.2856994 0.93693388 -0.62137848 0 7 0
-1.3825862 1.0075387 -0.62271714 0 8 0
-1.4928666 1.0879039 -0.62409788 0 9 0
-1.618818 1.179689 -0.62520581 0 10 0
-1.7628807 1.2846725 -0.62552059 0 11 0
-1.9313796 1.4074636 -0.62550092 0 12 0
-2.1340907 1.5551862 -0.62586665 0 13 0
-2.3825505 1.7362474 -0.62664711 0 14 0
-2.6883929 1.9591255 -0.62655032 0 15 0
-3.0718925 2.238595 -0.62470448 0 16 0
-3.4529388 2.5162766 -0.60043728 0 17 0
-3.6264951 2.6427531 -0.52444232 0 18 0
-3.7664227 2.7447233 -0.43500453 0 19 0
-3.9206107 2.8570855 -0.3391445 0 20 0
-4.1396961 3.0167408 -0.23846623 0 21 0
-4.3900013 3.1991467 -0.12629649 0 22 0
-4.6898007 3.4176209 0.00016566519 0 23 0
-0.86501855 0.61160821 -0.62827313 0 0 0
-0.90819138 0.64213341 -0.62510753 0 1 0
-0.95544744 0.67554563 -0.622253 0 2 0
-1.0288515 0.72744572 -0.63289154 0 3 0
-1.0807891 0.76416796 -0.62669957 0 4 0
-1.1440799 0.80891752 -0.62390476 0 5 0
-1.2080878 0.85417408 -0.61796224 0 6 0
-1.3106997 0.92672545 -0.62698615 0 7 0
-1.4052429 0.99357188 -0.62645221 0 8 0
-1.5152348 1.0713413 -0.62697411 0 9 0
-1.6273769 1.1506308 -0.62208694 0 10 0
-1.7857825 1.2626309 -0.62716991 0 11 0
-1.9498342 1.3786231 -0.62502295 0 12 0
-2.1469214 1.5179728 -0.62319368 0 13 0
-2.4046733 1.7002155 -0.62600088 0 14 0
-2.7075801 1.9143846 -0.62457192 0 15 0
-3.1057656 2.1959202 -0.62513697 0 16 0
-3.5022686 2.4762661 -0.60279018 0 17 0
-3.6584816 2.5867162 -0.52366006 0 18 0
-3.7888961 2.678925 -0.43312708 0 19 0
-3.9376123 2.7840745 -0.33713356 0 20 0
-4.1966219 2.9672062 -0.23927438 0 21 0
-4.4457927 3.1433814 -0.12659419 0 22 0
-4.7526703 3.3603582 0.00016616996 0 23 0
-0.8709107 0.59726405 -0.62627935 0 0 0
-0.92215407 0.63240635 -0.62842321 0 1 0
-0.96717775 0.66328323 -0.62364566 0 2 0
-1.0138601 0.6952976 -0.61748439 0 3 0
-1.0909635 0.74817461 -0.62632549 0 4 0
-1.1688917 0.80161715 -0.63111365 0 5 0
-1.2355062 0.84730083 -0.62571955 0 6 0
-1.3262364 0.90952295 -0.62812644 0 7 0
-1.4072633 0.96509057 -0.62113112 0 8 0
-1.5325933 1.0510409 -0.62786746 0 9 0
-1.6588868 1.137652 -0.62784302 0 10 0
-1.7974334 1.2326663 -0.62500119 0 11 0
-1.9732518 1.3532413 -0.62625641 0 12 0
-2.1741972 1.491048 -0.62485206 0 13 0
-2.4258041 1.6635982 -0.6252389 0 14 0
-2.7275949 1.870564 -0.62294888 0 15 0
-3.1399636 2.1533635 -0.62575245 0 16 0
-3.5541492 2.4374087 -0.60565287 0 17 0
-3.6730692 2.5189633 -0.52053398 0 18 0
-3.8225267 2.62146 -0.4326379 0 19 0
-3.9736719 2.7251143 -0.3368468 0 20 0
-4.2269874 2.8988361 -0.23861553 0 21 0
-4.4879799 3.0778227 -0.12652805 0 22 0
-4.7756619 3.2751129 0.00016531786 0 23 0
-5.4476233 3.7359393 0.15396032 0 24 0
-0.8798036 0.58502698 -0.62658846 0 0 0
-0.92656279 0.61611962 -0.62535381 0 1 0
-0.97612083 0.6490733 -0.62335777 0 2 0
-1.0374972 0.68988562 -0.62580228 0 3 0
-1.1017864 0.73263484 -0.62645435 0 4 0
-1.1714349 0.77894771 -0.62640274 0 5 0
-1.253693 0.8336454 -0.62882268 0 6 0
-1.3350887 0.8877697 -0.62623662 0 7 0
-1.4322611 0.95238459 -0.62608361 0 8 0
-1.5500513 1.0307095 -0.62891126 0 9 0
-1.6787175 1.1162663 -0.62923688 0 10 0
-1.8145405 1.206582 -0.62488043 0 11 0
-1.9937619 1.3257556 -0.62667906 0 12 0
-2.1957853 1.4600914 -0.62498611 0 13 0
-2.4511123 1.6298715 -0.62568486 0 14 0
-2.7637484 1.8377594 -0.62513417 0 15 0
-3.1507738 2.0951128 -0.62186676 0 16 0
-3.5851114 2.3839264 -0.60505241 0 17 0
-3.7095118 2.4666464 -0.52064168 0 18 0
-3.8336737 2.5492084 -0.4297258 0 19 0
-4.0017071 2.6609423 -0.33596024 0 20 0
-4.2642298 2.8355072 -0.23840235 0 21 0
-4.5271182 3.0103154 -0.12640376 0 22 0
-4.8090611 3.1977937 0.00016487269 0 23 0
-5.3435793 3.5532229 0.14956714 0 24 0
-0.88127518 0.56798548 -0.62178278 0 0 0
-0.92546666 0.59646708 -0.61878854 0 1 0
-0.99021137 0.63819528 -0.62645841 0 2 0
-1.0538663 0.67922115 -0.62974715 0 3 0
-1.118682 0.72099513 -0.63012862 0 4 0
-1.1899476 0.76692611 -0.63036758 0 5 0
-1.2626212 0.81376451 -0.62739432 0 6 0
-1.3490453 0.86946523 -0.62688142 0 7 0
-1.4464296 0.93222982 -0.62638009 0 8 0
-1.5446987 0.99556464 -0.62089413 0 9 0
-1.682478 1.0843639 -0.62476462 0 10 0
-1.8503903 1.1925842 -0.63128304 0 11 0
-2.0033832 1.2911886 -0.6238302 0 12 0
-2.2066712 1.4222087 -0.62222672 0 13 0
-2.4698474 1.5918268 -0.6245873 0 14 0
-2.7912841 1.7989941 -0.6254741 0 15 0
-3.2038255 2.0648787 -0.62644005 0 16 0
-3.6006176 2.3206129 -0.60200185 0 17 0
-3.725755 2.4012644 -0.51804441 0 18 0
-3.8619771 2.4890602 -0.4288609 0 19 0
-4.0246797 2.5939226 -0.33473754 0 20 0
-4.2905159 2.7652552 -0.23763478 0 21 0
-4.5383205 2.9249661 -0.12553471 0 22 0
-4.8263698 3.110615 0.00016392287 0 23 0
-5.2763448 3.4006259 0.14630786 0 24 0
-0.8923493 0.55720991 -0.62390506 0 0 0
-0.94303262 0.58885807 -0.62483394 0 1 0
-0.99033332 0.61839408 -0.62087214 0 2 0
-1.0466952 0.65358812 -0.61980832 0 3 0
-1.1330997 0.7075417 -0.6324805 0 4 0
-1.1914656 0.7439872 -0.62546647 0 5 0
-1.265287 0.79008347 -0.62303585 0 6 0
-1.364779 0.85220921 -0.62845993 0 7 0
-1.4544514 0.90820348 -0.62416065 0 8 0
-1.5743464 0.98306948 -0.62709093 0 9 0
-1.6934297 1.0574287 -0.62314725 0 10 0
-1.8483897 1.1541904 -0.6249004 0 11 0
-2.0339065 1.2700326 -0.62760991 0 12 0
-2.2295887 1.3922226 -0.62300605 0 13 0
-2.5017533 1.5621705 -0.62693709 0 14 0
-2.8203034 1.7610828 -0.62626415 0 15 0
-3.2258914 2.0143442 -0.62505299 0 16 0
-3.6151586 2.2574143 -0.5989694 0 17 0
-3.751842 2.3427637 -0.51695615 0 18 0
-3.8625257 2.4118779 -0.42504469 0 19 0
-4.0511718 2.5296743 -0.33389527 0 20 0
-4.2873178 2.6771309 -0.23531121 0 21 0
-4.565299 2.8507106 -0.12513947 0 22 0
-4.8452778 3.0255377 0.00016307751 0 23 0
-5.2404599 3.2723017 0.14399928 0 24 0
-5.5585876 3.4709501 0.30546036 0 25 0
-0.90332365 0.54625064 -0.62604725 0 0 0
-0.9493016 0.57405406 -0.62347955 0 1 0
-1.0037246 0.60696429 -0.623757 0 2 0
-1.0646578 0.6438114 -0.62492418 0 3 0
-1.1316375 0.68431473 -0.62613279 0 4 0
-1.2018919 0.72679847 -0.62541461 0 5 0
-1.2770009 0.77221781 -0.62329739 0 6 0
-1.37562 0.83185393 -0.62790489 0 7 0
-1.4664067 0.88675368 -0.62378031 0 8 0
-1.5898039 0.96137351 -0.62770253 0 9 0
-1.7088327 1.0333517 -0.62330872 0 10 0
-1.862829 1.1264751 -0.62426692 0 11 0
-2.038471 1.2326878 -0.62351006 0 12 0
-2.2457733 1.3580461 -0.62203306 0 13 0
-2.5175107 1.5223688 -0.62536108 0 14 0
-2.8293545 1.7109447 -0.62277216 0 15 0
-3.2547772 1.9682028 -0.62512732 0 16 0
-3.63449 2.1978197 -0.59689903 0 17 0
-3.764694 2.2765555 -0.51418442 0 18 0
-3.8959951 2.3559549 -0.42497337 0 19 0
-4.0655818 2.4585061 -0.33214855 0 20 0
-4.3241768 2.6148815 -0.23525587 0 21 0
-4.5869231 2.7737675 -0.12463118 0 22 0
-4.8701658 2.9450479 0.00016247976 0 23 0
-5.2574625 3.1792507 0.14320138 0 24 0
-5.5269246 3.3421977 0.30106071 0 25 0
-0.91389191 0.53493035 -0.62800074 0 0 0
-0.96495563 0.56481957 -0.62838668 0 1 0
-1.0171218 0.59535414 -0.62672275 0 2 0
-1.0792744 0.63173407 -0.62813175 0 3 0
-1.1392941 0.66686553 -0.62502384 0 4 0
-1.2164381 0.7120204 -0.62761629 0 5 0
-1.2922779 0.75641185 -0.62540537 0 6 0
-1.3744357 0.80450141 -0.62204444 0 7 0
-1.489478 0.8718394 -0.62822169 0 8 0
-1.6058618 0.93996257 -0.62866616 0 9 0
-1.7349544 1.0155246 -0.62747043 0 10 0
-1.8747529 1.0973532 -0.62293535 0 11 0
-2.0636859 1.2079418 -0.62587005 0 12 0
-2.2802157 1.3346837 -0.62621742 0 13 0
-2.5381687 1.4856718 -0.62514627 0 14 0
-2.8681784 1.6788371 -0.62596434 0 15 0
-3.2905676 1.9260751 -0.62664223 0 16 0
-3.6495023 2.1361711 -0.59428209 0 17 0
-3.7820041 2.2137287 -0.51216853 0 18 0
-3.908114 2.287545 -0.42268044 0 19 0
-4.0945377 2.3966646 -0.33167762 0 20 0
-4.331552 2.5353968 -0.23365882 0 21 0
-4.5986738 2.6917517 -0.12389091 0 22 0
-4.8960228 2.8657997 0.00016195732 0 23 0
-5.2752776 3.0877898 0.1424682 0 24 0
-5.5492659 3.2481639 0.29971442 0 25 0
-0.91696054 0.51925129 -0.62493813 0 0 0
-0.97021973 0.54941058 -0.62662941 0 1 0
-1.0190099 0.5770393 -0.62273318 0 2 0
-1.0859494 0.61494535 -0.62682968 0 3 0
-1.1511614 0.65187323 -0.62635136 0 4 0
-1.2214801 0.69169295 -0.6250456 0 5 0
-1.3035986 0.73819453 -0.62570649 0 6 0
-1.3921245 0.78832453 -0.62487936 0 7 0
-1.4939705 0.84599727 -0.62494516 0 8 0
-1.6155479 0.91484344 -0.6272676 0 9 0
-1.7420535 0.98648036 -0.62486732 0 10 0
-1.8925694 1.0717137 -0.62369442 0 11 0
-2.0841525 1.1802021 -0.62688965 0 12 0
-2.2897713 1.2966388 -0.62368077 0 13 0
-2.5568511 1.4478793 -0.62457943 0 14 0
-2.8933301 1.6384187 -0.62627125 0 15 0
-3.2937818 1.8651843 -0.62210643 0 16 0
-3.6552796 2.0698912 -0.59033793 0 17 0
-3.7925925 2.1476481 -0.50938731 0 18 0
-3.9297242 2.2253022 -0.42152959 0 19 0
-4.101109 2.3223531 -0.32948351 0 20 0
-4.3464541 2.4612856 -0.23253846 0 21 0
-4.6106839 2.6109123 -0.12319505 0 22 0
-4.9133744 2.7823181 0.0001611974 0 23 0
-5.2787213 2.9892046 0.1413912 0 24 0
-5.5765791 3.1578741 0.29871777 0 25 0
-0.91589534 0.50147384 -0.61925685 0 0 0
-0.97541213 0.53406066 -0.62498188 0 1 0
-1.0330124 0.56559813 -0.6262787 0 2 0
-1.0964496 0.60033149 -0.62786633 0 3 0
-1.1561788 0.63303459 -0.62408733 0 4 0
-1.244778 0.68154472 -0.6319108 0 5 0
-1.3160912 0.72059029 -0.62668788 0 6 0
-1.4126461 0.77345634 -0.62905699 0 7 0
-1.5099503 0.82673264 -0.62661546 0 8 0
-1.6232163 0.88874835 -0.62524176 0 9 0
-1.7548952 0.96084565 -0.62447643 0 10 0
-1.9020529 1.0414178 -0.62184358 0 11 0
-2.0983083 1.1488723 -0.6261372 0 12 0
-2.3090706 1.2642695 -0.62394464 0 13 0
-2.5743165 1.4094977 -0.62385368 0 14 0
-2.9149425 1.5959983 -0.6259405 0 15 0
-3.3422172 1.8299412 -0.62624335 0 16 0
-3.6817174 2.0158253 -0.58988738 0 17 0
-3.8011088 2.0811946 -0.50647825 0 18 0
-3.9313514 2.1525056 -0.41835642 0 19 0
-4.1270275 2.2596428 -0.32893366 0 20 0
-4.3627734 2.3887191 -0.23155861 0 21 0
-4.6337581 2.5370896 -0.1228287 0 22 0
-4.9413071 2.7054796 0.00016082686 0 23 0
-5.2993712 2.9015279 0.14081748 0 24 0
-5.5946546 3.0632026 0.29730693 0 25 0
-0.93470126 0.49451619 -0.62712198 0 0 0
-0.97718626 0.51699346 -0.62131351 0 1 0
-1.0409446 0.5507257 -0.62624454 0 2 0
-1.0886713 0.57597613 -0.61862791 0 3 0
-1.1635367 0.61558467 -0.62323904 0 4 0
-1.2336296 0.65266824 -0.62144518 0 5 0
-1.3202537 0.69849789 -0.62384534 0 6 0
-1.4151639 0.74871135 -0.62534195 0 7 0
-1.5135382 0.80075765 -0.62328416 0 8 0
-1.6374494 0.86631447 -0.62588376 0 9 0
-1.7756495 0.93943119 -0.62701273 0 10 0
-1.9156988 1.0135261 -0.62149841 0 11 0
-2.1064465 1.1144438 -0.62374181 0 12 0
-2.3346248 1.2351644 -0.62600833 0 13 0
-2.6059403 1.3787076 -0.62667084 0 14 0
-2.9308908 1.550627 -0.6245352 0 15 0
-3.360343 1.7778344 -0.62480754 0 16 0
-3.6779056 1.9458451 -0.58475429 0 17 0
-3.8056901 2.0134513 -0.50319707 0 18 0
-3.9553285 2.0926194 -0.41767776 0 19 0
-4.1262774 2.1830623 -0.32634994 0 20 0
-4.3750086 2.314657 -0.23042597 0 21 0
-4.6616507 2.4663088 -0.12261975 0 22 0
-4.9461489 2.6168263 0.000159749 0 23 0
-5.3284397 2.8190823 0.1405033 0 24 0
-5.6110635 2.9686081 0.29589057 0 25 0
-0.93755955 0.47898152 -0.62437588 0 0 0
-0.97809196 0.49968874 -0.61727864 0 1 0
-1.0440308 0.53337562 -0.62344438 0 2 0
-1.1041847 0.56410718 -0.62279129 0 3 0
-1.1844738 0.60512537 -0.62974989 0 4 0
-1.2539089 0.64059842 -0.62697774 0 5 0
-1.3275516 0.67822111 -0.62264287 0 6 0
-1.4288361 0.72996545 -0.62670243 0 7 0
-1.5372179 0.7853356 -0.62834209 0 8 0
-1.6524802 0.844221 -0.62694603 0 9 0
-1.7826906 0.91074306 -0.6248318 0 10 0
-1.956645 0.99961305 -0.63007593 0 11 0
-2.1247203 1.0854795 -0.62448817 0 12 0
-2.3564293 1.2038554 -0.62717038 0 13 0
-2.6250846 1.3411062 -0.62659425 0 14 0
-2.9565196 1.5104301 -0.62532544 0 15 0
-3.3932254 1.7335348 -0.62624383 0 16 0
-3.6859624 1.8830888 -0.58169031 0 17 0
-3.8252444 1.9542453 -0.50203264 0 18 0
-3.952898 2.0194612 -0.41432625 0 19 0
-4.1378541 2.1139517 -0.32483917 0 20 0
-4.3819962 2.2386794 -0.22908285 0 21 0
-4.6516356 2.3764331 -0.12144914 0 22 0
-4.9686384 2.5383837 0.00015928558 0 23 0
-5.3475704 2.7319729 0.1399623 0 24 0
-5.6333675 2.8779814 0.29486427 0 25 0
-0.93795365 0.46237639 -0.62016737 0 0 0
-1.0034885 0.49468261 -0.62877345 0 1 0
-1.0531623 0.51916999 -0.62439591 0 2 0
-1.1296864 0.55689347 -0.6326142 0 3 0
-1.191312 0.58727264 -0.62885201 0 4 0
-1.2601132 0.62118906 -0.62557006 0 5 0
-1.3485491 0.66478473 -0.6279639 0 6 0
-1.4525378 0.71604729 -0.63253802 0 7 0
-1.5439025 0.7610867 -0.62655747 0 8 0
-1.662266 0.81943548 -0.62614459 0 9 0
-1.7906179 0.88270825 -0.6231181 0 10 0
-1.963921 0.96814018 -0.62789232 0 11 0
-2.1542342 1.0619575 -0.62863082 0 12 0
-2.3725557 1.1695819 -0.62694263 0 13 0
-2.6444046 1.3035934 -0.62668788 0 14 0
-2.9868009 1.4723821 -0.62720841 0 15 0
-3.4212785 1.6865634 -0.62690169 0 16 0
-3.6890118 1.8185459 -0.57800454 0 17 0
-3.8247974 1.8854833 -0.49838102 0 18 0
-3.9603384 1.9523 -0.41213495 0 19 0
-4.1552029 2.0483608 -0.32386625 0 20 0
-4.398612 2.1683526 -0.22830556 0 21 0
-4.653852 2.2941766 -0.12063731 0 22 0
-5.0019717 2.4657865 0.00015920641 0 23 0
-5.3760815 2.6502087 0.13970137 0 24 0
-5.6782708 2.7991769 0.29508722 0 25 0
-0.95363104 0.45325679 -0.6261794 0 0 0
-1.0084497 0.47931185 -0.62751901 0 1 0
-1.0620296 0.50477815 -0.62530535 0 2 0
-1.1235522 0.53401959 -0.62483472 0 3 0
-1.1832075 0.56237352 -0.62026131 0 4 0
-1.263791 0.60067451 -0.6230638 0 5 0
-1.3542894 0.64368802 -0.62628245 0 6 0
-1.4547529 0.6914379 -0.6291284 0 7 0
-1.541952 0.73288327 -0.62144512 0 8 0
-1.6775513 0.797333 -0.6275391 0 9 0
-1.8133198 0.8618632 -0.626661 0 10 0
-1.9726607 0.93759727 -0.62633169 0 11 0
-2.1572597 1.0253364 -0.62516695 0 12 0
-2.3793857 1.1309119 -0.62440604 0 13 0
-2.6636879 1.2660396 -0.62689894 0 14 0
-3.000592 1.4261686 -0.6257537 0 15 0
-3.4339638 1.6321485 -0.62488139 0 16 0
-3.7272229 1.7715333 -0.57995921 0 17 0
-3.8385208 1.8244326 -0.49671561 0 18 0
-3.9853597 1.8942246 -0.41187507 0 19 0
-4.1629376 1.9786266 -0.3222287 0 20 0
-4.4071779 2.094713 -0.22717068 0 21 0
-4.6801119 2.2244375 -0.12048033 0 22 0
-5.0361824 2.393676 0.00015918846 0 23 0
-5.4198265 2.5760205 0.13986565 0 24 0
-0.95783412 0.43856099 -0.62475336 0 0 0
-1.0196509 0.46686488 -0.63026637 0 1 0
-1.0743006 0.49188721 -0.62832063 0 2 0
-1.1325049 0.5185371 -0.62562191 0 3 0
-1.2086145 0.55338514 -0.62936342 0 4 0
-1.2797621 0.58596134 -0.62673861 0 5 0
-1.3736725 0.62895977 -0.63101816 0 6 0
-1.4508916 0.66431594 -0.62328255 0 7 0
-1.5598902 0.71422279 -0.6244905 0 8 0
-1.6790287 0.76877248 -0.62391162 0 9 0
-1.8149298 0.83099717 -0.62304306 0 10 0
-1.9858456 0.9092539 -0.62632161 0 11 0
-2.1669848 0.99219161 -0.62380576 0 12 0
-2.3990099 1.0984284 -0.62536591 0 13 0
-2.6699045 1.2224621 -0.62418002 0 14 0
-3.0125647 1.3793551 -0.62406927 0 15 0
-3.4589756 1.583752 -0.62524366 0 16 0
-3.7376516 1.7113487 -0.57771122 0 17 0
-3.8454709 1.7607157 -0.49430314 0 18 0
-4.0038962 1.8332534 -0.41103682 0 19 0
-4.1746111 1.9114183 -0.32098174 0 20 0
-4.4086256 2.0185659 -0.22573289 0 21 0
-4.6987896 2.1514225 -0.1201561 0 22 0
-5.0570903 2.3154767 0.00015878548 0 23 0
-5.4778333 2.5081213 0.14042176 0 24 0
-1.0212153 0.45001483 -0.62718767 0 1 0
-1.0798773 0.47586513 -0.62753427 0 2 0
-1.1455278 0.50479507 -0.62876022 0 3 0
-1.2065738 0.53169602 -0.6242739 0 4 0
-1.2849342 0.56622672 -0.62523836 0 5 0
-1.3745188 0.60570359 -0.62736011 0 6 0
-1.4641964 0.64522147 -0.62496674 0 7 0
-1.5700902 0.69188523 -0.62454534 0 8 0
-1.6840078 0.74208486 -0.62175113 0 9 0
-1.8255422 0.80445427 -0.62266952 0 10 0
-1.9891483 0.8765499 -0.62334234 0 11 0
-2.1904216 0.96524411 -0.6265111 0 12 0
-2.4163933 1.0648222 -0.62586015 0 13 0
-2.6890984 1.184994 -0.62463796 0 14 0
-3.0353916 1.3375937 -0.6247679 0 15 0
-3.4733202 1.530574 -0.62381268 0 16 0
-3.7544503 1.6544584 -0.57658839 0 17 0
-3.8733778 1.7068655 -0.49469924 0 18 0
-3.9932599 1.7596936 -0.40731749 0 19 0
-4.1976247 1.8497502 -0.32068262 0 20 0
-4.4315596 1.9528372 -0.22545286 0 21 0
-4.6823235 2.0633404 -0.11896762 0 22 0
-5.1135941 2.2533867 0.00015953055 0 23 0
-5.5397668 2.4411864 0.14109923 0 24 0
-1.0190451 0.43174919 -0.62199569 0 1 0
-1.0833156 0.45897931 -0.62565058 0 2 0
-1.1447433 0.48500502 -0.62445527 0 3 0
-1.2176554 0.51589644 -0.62612277 0 4 0
-1.283983 0.54399806 -0.6209231 0 5 0
-1.3798714 0.58462411 -0.6259197 0 6 0
-1.483224 0.62841254 -0.6291846 0 7 0
-1.5812129 0.66992849 -0.62509137 0 8 0
-1.6950295 0.71815032 -0.62196153 0 9 0
-1.8471344 0.78259414 -0.62614948 0 10 0
-2.0113575 0.8521722 -0.62641555 0 11 0
-2.1870906 0.9266268 -0.62170112 0 12 0
-2.4338651 1.0311803 -0.62649846 0 13 0
-2.7017415 1.1446742 -0.62370509 0 14 0
-3.0531173 1.2935451 -0.6245414 0 15 0
-3.4932625 1.4800259 -0.62352568 0 16 0
-3.7667947 1.595916 -0.57491714 0 17 0
-3.8769486 1.6425861 -0.49210212 0 18 0
-4.0255919 1.7055633 -0.40808347 0 19 0
-4.2074332 1.7826059 -0.31944999 0 20 0
-4.4396048 1.8809723 -0.22446945 0 21 0
-4.7160702 1.9981052 -0.11908619 0 22 0
-5.2120333 2.2082348 0.00016159897 0 23 0
-5.6613526 2.3986027 0.14330693 0 24 0
-1.0967933 0.44628423 -0.62968063 0 2 0
-1.1535276 0.46936938 -0.6255182 0 3 0
-1.2323673 0.50144911 -0.6299324 0 4 0
-1.2959018 0.52730125 -0.62297314 0 5 0
-1.3882426 0.56487465 -0.62598526 0 6 0
-1.4706597 0.59841013 -0.6201579 0 7 0
-1.5756991 0.64115059 -0.61922032 0 8 0
-1.7143016 0.69754773 -0.62530547 0 9 0
-1.8574897 0.75581086 -0.62592846 0 10 0
-2.0159767 0.82029909 -0.62413353 0 11 0
-2.2219915 0.90412641 -0.62787908 0 12 0
-2.4437172 0.99434638 -0.6253069 0 13 0
-2.722712 1.1078691 -0.62482148 0 14 0
-3.0689299 1.2487448 -0.62405586 0 15 0
-3.5164888 1.4308561 -0.62395191 0 16 0
-3.8054814 1.548447 -0.57737994 0 17 0
-3.916223 1.5935076 -0.49414152 0 18 0
-4.0566473 1.6506461 -0.40879467 0 19 0
-4.2418666 1.7260118 -0.3201558 0 20 0
-4.4597411 1.8146646 -0.22415133 0 21 0
-4.7626805 1.9379305 -0.11955049 0 22 0
-5.3110852 2.1610758 0.00016369425 0 23 0
-1.0984428 0.42873588 -0.62704027 0 2 0
-1.1582284 0.45207092 -0.62449443 0 3 0
-1.2360771 0.48245621 -0.62823445 0 4 0
-1.3046103 0.50920558 -0.6235919 0 5 0
-1.3948982 0.54444605 -0.62540835 0 6 0
-1.4786384 0.57713091 -0.61997545 0 7 0
-1.597819 0.62364858 -0.62434107 0 8 0
-1.726537 0.6738888 -0.62618595 0 9 0
-1.8695368 0.72970337 -0.62640429 0 10 0
-2.0135479 0.78591269 -0.61983538 0 11 0
-2.2243865 0.86820567 -0.62498027 0 12 0
-2.4481552 0.95554531 -0.62287891 0 13 0
-2.7346759 1.0673779 -0.62399697 0 14 0
-3.1084809 1.2132787 -0.62850267 0 15 0
-3.5567701 1.3882515 -0.62750924 0 16 0
-3.8206067 1.4912302 -0.57637727 0 17 0
-3.9404743 1.538016 -0.49437311 0 18 0
-4.0780783 1.5917245 -0.40861657 0 19 0
-4.2788939 1.6701055 -0.32111332 0 20 0
-4.5165434 1.762863 -0.22571497 0 21 0
-4.8670101 1.8996544 -0.12147434 0 22 0
-5.4591813 2.1307862 0.00016730161 0 23 0
-1.0393465 0.38862208 -0.62362057 0 1 0
-1.1019157 0.41201735 -0.62559223 0 2 0
-1.1716281 0.4380835 -0.62827402 0 3 0
-1.2476808 0.46652034 -0.63067365 0 4 0
-1.3092166 0.48952919 -0.62238073 0 5 0
-1.3955926 0.52182603 -0.62230712 0 6 0
-1.4895564 0.55696005 -0.62114704 0 7 0
-1.6035464 0.59958208 -0.62316179 0 8 0
-1.7335943 0.64820826 -0.62531644 0 9 0
-1.8738334 0.70064509 -0.62441981 0 10 0
-2.0490777 0.76617074 -0.62733257 0 11 0
-2.2346938 0.83557439 -0.62445194 0 12 0
-2.464004 0.92131585 -0.62349224 0 13 0
-2.7506278 1.0284873 -0.62421387 0 14 0
-3.1128957 1.1639428 -0.62596267 0 15 0
-3.5647161 1.332883 -0.62548113 0 16 0
-3.8310566 1.4324704 -0.57480168 0 17 0
-3.957375 1.4797022 -0.49378571 0 18 0
-4.1012812 1.5335101 -0.40870026 0 19 0
-4.3085647 1.6110156 -0.32157654 0 20 0
-4.5618415 1.7057183 -0.22673537 0 21 0
-4.977984 1.8613181 -0.12356651 0 22 0
-5.6048608 2.0957136 0.00017082931 0 23 0
-1.0616812 0.37974453 -0.63369536 0 1 0
-1.1001396 0.39350042 -0.62132251 0 2 0
-1.1791079 0.42174599 -0.6289835 0 3 0
-1.2375635 0.44265452 -0.62229317 0 4 0
-1.3282028 0.47507459 -0.62810951 0 5 0
-1.4138139 0.50569618 -0.62714034 0 6 0
-1.5088315 0.53968227 -0.62589943 0 7 0
-1.6273159 0.58206201 -0.62909681 0 8 0
-1.7483474 0.62535286 -0.62734509 0 9 0
-1.8917171 0.6766336 -0.62708759 0 10 0
-2.0425854 0.73059654 -0.62207961 0 11 0
-2.2455451 0.8031916 -0.62420774 0 12 0
-2.4865878 0.88940835 -0.62592137 0 13 0
-2.7605481 0.98739904 -0.62319404 0 14 0
-3.1236782 1.1172843 -0.62485105 0 15 0
-3.5897806 1.2840009 -0.62659007 0 16 0
-3.853184 1.3782156 -0.57510287 0 17 0
-3.9948282 1.4288791 -0.49585623 0 18 0
-4.1393728 1.4805802 -0.41034228 0 19 0
-4.3385191 1.5518113 -0.32212144 0 20 0
-4.6353393 1.6579787 -0.22918542 0 21 0
-5.1401477 1.8385396 -0.1269256 0 22 0
-5.7994976 2.0743773 0.00017583864 0 23 0
-1.0555543 0.36059827 -0.6268934 0 1 0
-1.1094143 0.37899792 -0.62343299 0 2 0
-1.1825359 0.40397769 -0.62766325 0 3 0
-1.2366502 0.42246422 -0.61872995 0 4 0
-1.3274126 0.45347044 -0.62460238 0 5 0
-1.4195591 0.48494953 -0.62654561 0 6 0
-1.515761 0.51781398 -0.62563533 0 7 0
-1.6288069 0.55643272 -0.62653011 0 8 0
-1.7568618 0.60017884 -0.62725347 0 9 0
-1.8966411 0.6479302 -0.6255815 0 10 0
-2.069711 0.70705426 -0.62719434 0 11 0
-2.2592888 0.77181786 -0.62489325 0 12 0
-2.4959731 0.85267389 -0.6251477 0 13 0
-2.7843008 0.95117235 -0.62541866 0 14 0
-3.138324 1.0721136 -0.62464708 0 15 0
-3.5950515 1.2281408 -0.62437779 0 16 0
-3.8624845 1.3195013 -0.57361341 0 17 0
-4.0173683 1.3724126 -0.49616489 0 18 0
-4.172091 1.425269 -0.41152123 0 19 0
-4.3891983 1.4994371 -0.32425749 0 20 0
-4.7238693 1.6137674 -0.23239674 0 21 0
-5.425046 1.8533032 -0.1332919 0 22 0
-1.0511868 0.34238595 -0.62132537 0 1 0
-1.123245 0.36585629 -0.62819803 0 2 0
-1.1741756 0.38244507 -0.62025672 0 3 0
-1.2495348 0.40699062 -0.6221981 0 4 0
-1.3355004 0.43499073 -0.62541425 0 5 0
-1.4175767 0.46172413 -0.6226899 0 6 0
-1.5160122 0.49378592 -0.62275797 0 7 0
-1.642972 0.53513849 -0.628968 0 8 0
-1.7632716 0.57432169 -0.62654275 0 9 0
-1.9105464 0.62229115 -0.62716585 0 10 0
-2.0701125 0.67426395 -0.62432748 0 11 0
-2.2719262 0.73999745 -0.62539488 0 12 0
-2.5181172 0.82018524 -0.62768924 0 13 0
-2.8068805 0.91423941 -0.62748688 0 14 0
-3.1530693 1.0269978 -0.62459213 0 15 0
-3.6221242 1.1797755 -0.62608278 0 16 0
-3.8973296 1.2694136 -0.57603079 0 17 0
-4.0559416 1.3210757 -0.49854243 0 18 0
-4.205646 1.3698366 -0.4128547 0 19 0
-4.4291043 1.4426199 -0.32564676 0 20 0
-4.8439989 1.5777568 -0.23717135 0 21 0
-5.618259 1.8299439 -0.13738146 0 22 0
-1.0607609 0.32878834 -0.62413877 0 1 0
-1.1232591 0.34816 -0.62535477 0 2 0
-1.1938932 0.37005341 -0.62781024 0 3 0
-1.2594618 0.39037672 -0.62429488 0 4 0
-1.3438323 0.41652781 -0.62645996 0 5 0
-1.4245281 0.44153991 -0.62290353 0 6 0
-1.5390962 0.47705087 -0.62937117 0 7 0
-1.648693 0.51102096 -0.62829363 0 8 0
-1.7741457 0.54990572 -0.6275456 0 9 0
-1.912483 0.59278405 -0.62495226 0 10 0
-2.0739019 0.64281666 -0.62263161 0 11 0
-2.2901044 0.70982981 -0.62753779 0 12 0
-2.5297892 0.78412133 -0.62773681 0 13 0
-2.8066909 0.86994845 -0.62459683 0 14 0
-3.1742477 0.98387462 -0.62593365 0 15 0
-3.6263249 1.1239983 -0.62396407 0 16 0
-3.9015052 1.2092918 -0.57403088 0 17 0
-4.0853534 1.2662766 -0.49987862 0 18 0
-4.2587461 1.3200206 -0.41616997 0 19 0
-4.5142388 1.3992118 -0.33039987 0 20 0
-5.0301304 1.5591151 -0.24516696 0 21 0
-6.025445 1.867618 -0.14666957 0 22 0
-1.0694516 0.314778 -0.62653708 0 1 0
-1.1286348 0.33219776 -0.62563634 0 2 0
-1.1974475 0.3524518 -0.62696224 0 3 0
-1.2641709 0.37209088 -0.62392521 0 4 0
-1.3405899 0.39458373 -0.62225175 0 5 0
-1.4352547 0.422447 -0.62488586 0 6 0
-1.5476775 0.45553705 -0.63014936 0 7 0
-1.6480458 0.48507905 -0.625337 0 8 0
-1.7716552 0.52146173 -0.62396061 0 9 0
-1.9282606 0.56755632 -0.62738913 0 10 0
-2.0978112 0.6174612 -0.62709218 0 11 0
-2.2884235 0.67356521 -0.62437141 0 12 0
-2.539454 0.7474525 -0.62741596 0 13 0
-2.8149869 0.82855177 -0.62373996 0 14 0
-3.1879687 0.93833369 -0.62592673 0 15 0
-3.650202 1.0743855 -0.6253624 0 16 0
-3.9273913 1.1559722 -0.57534611 0 17 0
-4.0839286 1.2020469 -0.49754804 0 18 0
-4.3005018 1.265792 -0.418437 0 19 0
-4.5977869 1.3532937 -0.33506274 0 20 0
-5.449389 1.6039509 -0.26445541 0 21 0
-1.073612 0.29937419 -0.62639987 0 1 0
-1.1401119 0.31791756 -0.62941152 0 2 0
-1.2072504 0.33663896 -0.62950748 0 3 0
-1.2688072 0.35380393 -0.62365019 0 4 0
-1.3628178 0.38001856 -0.62997991 0 5 0
-1.4383895 0.40109158 -0.62368727 0 6 0
-1.5504881 0.43234998 -0.62870967 0 7 0
-1.6663977 0.46467111 -0.62971228 0 8 0
-1.777552 0.49566624 -0.62347484 0 9 0
-1.9263662 0.53716272 -0.6242072 0 10 0
-2.0981371 0.58506066 -0.62462229 0 11 0
-2.3017564 0.64183939 -0.62543845 0 12 0
-2.538698 0.70791006 -0.62466174 0 13 0
-2.8303118 0.78922582 -0.62456858 0 14 0
-3.1949868 0.89091462 -0.62473696 0 15 0
-3.6590643 1.0203215 -0.62431467 0 16 0
-3.9672368 1.1062547 -0.57880437 0 17 0
-4.1366844 1.1535047 -0.50191242 0 18 0
-4.3507719 1.2132026 -0.42159545 0 19 0
-4.6989479 1.3102907 -0.34103316 0 20 0
-5.746109 1.6022892 -0.27771363 0 21 0
-1.0778342 0.28399053 -0.62642753 0 1 0
-1.1355776 0.29920489 -0.62447995 0 2 0
-1.2002354 0.31624112 -0.62342548 0 3 0
-1.264184 0.33309045 -0.61897093 0 4 0
-1.3586904 0.35799125 -0.6256392 0 5 0
-1.4513892 0.38241574 -0.62688631 0 6 0
-1.5461696 0.40738875 -0.62453008 0 7 0
-1.6580735 0.4368735 -0.62413979 0 8 0
-1.7829564 0.46977794 -0.62294811 0 9 0
-1.9427109 0.51187044 -0.62706506 0 10 0
-2.1122036 0.55652887 -0.6263743 0 11 0
-2.3050451 0.60733926 -0.62390608 0 12 0
-2.5438344 0.67025608 -0.62350118 0 13 0
-2.8487678 0.7506007 -0.62620634 0 14 0
-3.2213037 0.84875739 -0.62744308 0 15 0
-3.6807315 0.96980864 -0.62557906 0 16 0
-3.9787703 1.0483366 -0.57823861 0 17 0
-4.1643558 1.0972352 -0.50331271 0 18 0
-4.4141669 1.1630561 -0.42608175 0 19 0
-4.8194256 1.2698348 -0.3484222 0 20 0
-6.1377659 1.6171944 -0.29549369 0 21 0
-1.0849378 0.2693173 -0.62825125 0 1 0
-1.138126 0.28252038 -0.62359375 0 2 0
-1.2202768 0.30291292 -0.6315186 0 3 0
-1.2877095 0.31965193 -0.62818497 0 4 0
-1.3603169 0.33767545 -0.6240986 0 5 0
-1.4496833 0.35985917 -0.6238609 0 6 0
-1.5432873 0.38309476 -0.62108737 0 7 0
-1.6754994 0.41591418 -0.62839401 0 8 0
-1.7838523 0.44281092 -0.62098306 0 9 0
-1.9468994 0.48328456 -0.62612015 0 10 0
-2.1093824 0.52361822 -0.62325132 0 11 0
-2.328011 0.57788908 -0.62781912 0 12 0
-2.5745173 0.63907999 -0.62871516 0 13 0
-2.8500779 0.70748317 -0.62420434 0 14 0
-3.2286355 0.80145371 -0.62657255 0 15 0
-3.6844733 0.91460764 -0.6239261 0 16 0
-4.0069995 0.99466932 -0.58021271 0 17 0
-4.228837 1.0497367 -0.50923795 0 18 0
-4.4873848 1.1139168 -0.43156594 0 19 0
-5.495573 1.3641822 -0.3958523 0 20 0
-1.0928562 0.25473526 -0.63066059 0 1 0
-1.1486835 0.26774812 -0.62721425 0 2 0
-1.2142649 0.28303456 -0.62624657 0 3 0
-1.2859569 0.29974535 -0.62517291 0 4 0
-1.373659 0.32018796 -0.62805289 0 5 0
-1.4523252 0.33852437 -0.62284881 0 6 0
-1.5679001 0.36546385 -0.62882304 0 7 0
-1.6690071 0.38903102 -0.62380672 0 8 0
-1.805379 0.42081815 -0.62631583 0 9 0
-1.9452063 0.45341066 -0.62342459 0 10 0
-2.1215031 0.49450389 -0.62467718 0 11 0
-2.3284039 0.54273075 -0.62576598 0 12 0
-2.5765262 0.60056585 -0.62704229 0 13 0
-2.8702083 0.66902059 -0.62645179 0 14 0
-3.2411127 0.7554751 -0.62683123 0 15 0
-3.7030628 0.86315167 -0.62491786 0 16 0
-4.0407596 0.94186586 -0.58308929 0 17 0
-4.2857056 0.99896067 -0.51431155 0 18 0
-4.5968103 1.0714765 -0.44056967 0 19 0
-5.8576589 1.3653693 -0.42048299 0 20 0
-1.0933471 0.23840471 -0.62891024 0 1 0
-1.1551578 0.25188255 -0.62871641 0 2 0
-1.2186285 0.26572236 -0.62647134 0 3 0
-1.2939484 0.28214589 -0.62703055 0 4 0
-1.3752815 0.29988059 -0.62676799 0 5 0
-1.4633744 0.31908929 -0.62556458 0 6 0
-1.5618207 0.34055555 -0.62436593 0 7 0
-1.6870766 0.36786762 -0.628528 0 8 0
-1.8051225 0.39360759 -0.62420839 0 9 0
-1.9554824 0.42639363 -0.62469804 0 10 0
-2.141603 0.46697727 -0.62856311 0 11 0
-2.3362658 0.50942355 -0.62585509 0 12 0
-2.5816712 0.56293428 -0.62626928 0 13 0
-2.858012 0.62319052 -0.6217792 0 14 0
-3.2399895 0.7064808 -0.62459433 0 15 0
-3.7054312 0.80797058 -0.6233021 0 16 0
-4.0687633 0.88719523 -0.58523786 0 17 0
-4.354311 0.94945902 -0.52086037 0 18 0
-4.7072544 1.0264184 -0.44970074 0 19 0
-6.2228322 1.3568907 -0.44525662 0 20 0
-1.0874587 0.22086611 -0.62364084 0 1 0
-1.1518196 0.23393799 -0.62501305 0 2 0
-1.2112277 0.24600396 -0.62079293 0 3 0
-1.3001145 0.26405713 -0.62812269 0 4 0
-1.3751855 0.27930427 -0.62483823 0 5 0
-1.4755085 0.29968017 -0.62885356 0 6 0
-1.5662752 0.31811517 -0.62426245 0 7 0
-1.6752088 0.34023991 -0.6222285 0 8 0
-1.8203579 0.36972013 -0.62758255 0 9 0
-1.9830637 0.40276614 -0.63160276 0 10 0
-2.1387126 0.43437892 -0.62582588 0 11 0
-2.3519404 0.47768611 -0.62815815 0 12 0
-2.5916233 0.52636647 -0.62679166 0 13 0
-2.8876293 0.5864861 -0.62633216 0 14 0
-3.2466242 0.65939909 -0.62398994 0 15 0
-3.7258461 0.75673044 -0.62485015 0 16 0
-4.1075191 0.83424938 -0.5890345 0 17 0
-4.4258065 0.89889449 -0.52781945 0 18 0
-5.6136255 1.1401441 -0.53467578 0 19 0
-8.766367 1.7804753 -0.62536424 0 20 0
-1.1005584 0.20717162 -0.62938821 0 1 0
-1.1532047 0.21708189 -0.62401468 0 2 0
-1.2342788 0.23234345 -0.63083827 0 3 0
-1.2824124 0.24140425 -0.61783767 0 4 0
-1.3920945 0.26205105 -0.63075227 0 5 0
-1.4734286 0.27736157 -0.62621105 0 6 0
-1.5851808 0.29839808 -0.63003075 0 7 0
-1.693328 0.31875592 -0.62719971 0 8 0
-1.8426119 0.34685749 -0.63347828 0 9 0
-1.9592193 0.36880791 -0.62226331 0 10 0
-2.1443224 0.40365216 -0.62571263 0 11 0
-2.3332682 0.43921971 -0.62142843 0 12 0
-2.5822761 0.48609358 -0.6227845 0 13 0
-2.8926401 0.54451716 -0.62566447 0 14 0
-3.2547796 0.61268717 -0.62380797 0 15 0
-3.7448888 0.70494646 -0.6262874 0 16 0
-4.1840653 0.7876181 -0.5983336 0 17 0
-4.5416613 0.85493273 -0.54012156 0 18 0
-5.9468513 1.1194489 -0.56483024 0 19 0
-8.7994804 1.6564343 -0.62597102 0 20 0
-1.1047058 0.19162388 -0.63012701 0 1 0
-1.1607529 0.20134588 -0.62647545 0 2 0
-1.2098532 0.20986289 -0.61675596 0 3 0
-1.3049415 0.22635706 -0.62706649 0 4 0
-1.3857349 0.24037158 -0.6262477 0 5 0
-1.4807243 0.25684857 -0.62768495 0 6 0
-1.5770231 0.27355272 -0.6251682 0 7 0
-1.6993836 0.29477754 -0.62781554 0 8 0
-1.8117819 0.31427431 -0.62126893 0 9 0
-1.9676299 0.34130794 -0.62331915 0 10 0
-2.1518698 0.37326646 -0.62629181 0 11 0
-2.3433886 0.40648758 -0.62251049 0 12 0
-2.5981591 0.45068046 -0.62499529 0 13 0
-2.8898046 0.5012697 -0.62343538 0 14 0
-3.2880256 0.5703457 -0.62855083 0 15 0
-3.7408798 0.64889842 -0.62399971 0 16 0
-4.2725472 0.74112219 -0.60940731 0 17 0
-4.6516652 0.80688465 -0.55177385 0 18 0
-6.2382693 1.0820992 -0.59097737 0 19 0
-8.8319139 1.5319966 -0.62665415 0 20 0
-1.0339456 0.16414282 -0.62085807 0 0 0
-1.0962995 0.17404175 -0.62384713 0 1 0
-1.1630555 0.18463951 -0.62622774 0 2 0
-1.2343111 0.19595161 -0.62772989 0 3 0
-1.3100351 0.20797309 -0.62801933 0 4 0
-1.3790617 0.21893133 -0.62175208 0 5 0
-1.4801627 0.23498152 -0.62595701 0 6 0
-1.5791686 0.25069907 -0.62453222 0 7 0
-1.6886797 0.26808438 -0.62237978 0 8 0
-1.8169056 0.28844073 -0.62154657 0 9 0
-1.9755268 0.31362244 -0.62433475 0 10 0
-2.1443012 0.34041601 -0.62260705 0 11 0
-2.35619 0.37405419 -0.62442493 0 12 0
-2.5967813 0.41224897 -0.62318057 0 13 0
-2.9016554 0.46064892 -0.62450564 0 14 0
-3.2832179 0.52122343 -0.62614149 0 15 0
-3.7575035 0.5965181 -0.62528437 0 16 0
-4.3142719 0.6849072 -0.6138975 0 17 0
-4.7936406 0.76100886 -0.56726462 0 18 0
-6.4451866 1.0231981 -0.60912973 0 19 0
-8.8352203 1.4026252 -0.62540025 0 20 0
