# .PCD v0.7 - Point Cloud Data file format
VERSION 0.7
FIELDS x y z intensity ring time
SIZE 4 4 4 4 2 4
TYPE F F F F U F
COUNT 1 1 1 1 1 1
WIDTH 1197
HEIGHT 1
VIEWPOINT 0 0 0 1 0 0 0
POINTS 1197
DATA ascii
-0.3157514 1.7110583 -0.63334388 0 8 0
-0.33529764 1.8169795 -0.6242491 0 9 0
-0.36401632 1.9726061 -0.6260969 0 10 0
-0.39543462 2.1428618 -0.62486917 0 11 0
-0.41724747 2.261066 -0.60179663 0 12 0
-0.4319061 2.3405011 -0.56409723 0 13 0
-0.44707164 2.4226832 -0.52366525 0 14 0
-0.46166524 2.501766 -0.47916609 0 15 0
-0.47600821 2.5794907 -0.4311007 0 16 0
-0.48654687 2.6365995 -0.37678981 0 17 0
-0.50490582 2.7360868 -0.32517466 0 18 0
-0.51601857 2.7963071 -0.26541516 0 19 0
-0.53081244 2.8764751 -0.20448801 0 20 0
-0.55029905 2.9820731 -0.14117339 0 21 0
-0.56318951 3.0519264 -0.072156727 0 22 0
-0.57958549 3.1407764 9.1178001e-05 0 23 0
-0.59745151 3.2375925 0.076734513 0 24 0
-0.61300188 3.3218601 0.15745243 0 25 0
-0.63156569 3.4224575 0.24350147 0 26 0
-0.65449274 3.546699 0.33684734 0 27 0
-0.67769676 3.6724417 0.4366734 0 28 0
-0.70663542 3.8292606 0.54745668 0 29 0
-0.75334018 4.0823541 0.6825121 0 30 0
-0.79805309 4.3246531 0.82856572 0 31 0
-0.20438513 1.025125 -0.6199137 0 0 0
-0.21638395 1.0853069 -0.62195826 0 1 0
-0.23020577 1.1546323 -0.6260879 0 2 0
-0.24389125 1.223274 -0.62651533 0 3 0
-0.26093349 1.3087519 -0.63184005 0 4 0
-0.27402851 1.3744321 -0.62404591 0 5 0
-0.29495311 1.4793825 -0.63005036 0 6 0
-0.31160092 1.5628823 -0.62246132 0 7 0
-0.3356092 1.6832993 -0.6247831 0 8 0
-0.36242163 1.8177813 -0.6262427 0 9 0
-0.39489007 1.9806317 -0.6303736 0 10 0
-0.42609039 2.1371217 -0.6249097 0 11 0
-0.4535791 2.2749956 -0.60716981 0 12 0
-0.46956792 2.35519 -0.56919909 0 13 0
-0.48552069 2.4352036 -0.52781957 0 14 0
-0.49951506 2.5053945 -0.48118114 0 15 0
-0.51255459 2.5707963 -0.43082961 0 16 0
-0.52809721 2.6487527 -0.37956789 0 17 0
-0.54660559 2.7415843 -0.32672438 0 18 0
-0.55926704 2.8050897 -0.26698124 0 19 0
-0.57789916 2.8985419 -0.2066236 0 20 0
-0.59371901 2.9778886 -0.14136313 0 21 0
-0.60846251 3.051837 -0.072353117 0 22 0
-0.62935245 3.1566138 9.1889866e-05 0 23 0
-0.6463567 3.2419012 0.077048011 0 24 0
-0.66762221 3.3485618 0.15915471 0 25 0
-0.68767315 3.4491303 0.2460743 0 26 0
-0.70928085 3.5575068 0.33880332 0 27 0
-0.73610908 3.6920679 0.44021478 0 28 0
-0.77418512 3.8830442 0.55667317 0 29 0
-0.82602155 4.1430378 0.69456315 0 30 0
-0.87768352 4.4021564 0.84573495 0 31 0
-0.22047015 1.0287881 -0.62397325 0 0 0
-0.23226844 1.0838429 -0.62296069 0 1 0
-0.24627131 1.1491849 -0.62498146 0 2 0
-0.26097378 1.2177917 -0.62555653 0 3 0
-0.27696139 1.2923952 -0.62579316 0 4 0
-0.29675251 1.3847473 -0.63059342 0 5 0
-0.31599158 1.4745233 -0.62984258 0 6 0
-0.33747095 1.5747532 -0.62904865 0 7 0
-0.36222914 1.6902833 -0.62923521 0 8 0
-0.38710171 1.8063471 -0.62414837 0 9 0
-0.41970059 1.9584645 -0.62516642 0 10 0
-0.45726338 2.1337452 -0.62577206 0 11 0
-0.4885959 2.2799532 -0.61029696 0 12 0
-0.50301713 2.3472476 -0.56896138 0 13 0
-0.52192158 2.4354622 -0.52944058 0 14 0
-0.54006672 2.5201335 -0.48544684 0 15 0
-0.55431098 2.586602 -0.43476355 0 16 0
-0.56895661 2.6549435 -0.38158298 0 17 0
-0.59122843 2.7588713 -0.32975927 0 18 0
-0.60632122 2.8292992 -0.27008379 0 19 0
-0.62246895 2.90465 -0.20767288 0 20 0
-0.64321339 3.0014508 -0.14290406 0 21 0
-0.65834713 3.0720696 -0.073048718 0 22 0
-0.67934006 3.1700299 9.2554001e-05 0 23 0
-0.70055234 3.2690134 0.077922709 0 24 0
-0.72182107 3.3682604 0.16056558 0 25 0
-0.745489 3.4787033 0.24891992 0 26 0
-0.77006435 3.59338 0.3432343 0 27 0
-0.80535918 3.7580776 0.44941372 0 28 0
-0.85395861 3.9848588 0.57296294 0 29 0
-0.90107882 4.2047377 0.70699662 0 30 0
-0.96296424 4.493516 0.86584616 0 31 0
-0.23642521 1.0309941 -0.62729943 0 0 0
-0.25106201 1.0948217 -0.63127178 0 1 0
-0.26109472 1.138572 -0.62117845 0 2 0
-0.28107488 1.2257007 -0.63162118 0 3 0
-0.29182437 1.2725767 -0.61815602 0 4 0
-0.31082401 1.3554295 -0.61920512 0 5 0
-0.33144546 1.4453549 -0.61934632 0 6 0
-0.35548267 1.5501753 -0.62119967 0 7 0
-0.38265368 1.6686617 -0.62316138 0 8 0
-0.41361013 1.8036554 -0.62519991 0 9 0
-0.45052573 1.9646356 -0.6291303 0 10 0
-0.48633102 2.120774 -0.62394559 0 11 0
-0.52496451 2.2892456 -0.61473268 0 12 0
-0.54125768 2.360296 -0.57394332 0 13 0
-0.55819732 2.4341657 -0.53084129 0 14 0
-0.58112103 2.5341308 -0.48969516 0 15 0
-0.59476727 2.5936387 -0.43733239 0 16 0
-0.61495966 2.6816928 -0.38665301 0 17 0
-0.6353389 2.7705619 -0.33220956 0 18 0
-0.65116936 2.8395946 -0.27192846 0 19 0
-0.67122644 2.9270589 -0.20994045 0 20 0
-0.68947375 3.0066311 -0.14360586 0 21 0
-0.71054614 3.0985227 -0.073911987 0 22 0
-0.73460037 3.2034175 9.3826187e-05 0 23 0
-0.75571805 3.2955067 0.078803986 0 24 0
-0.77840567 3.3944421 0.16232817 0 25 0
-0.80697578 3.5190296 0.25260612 0 26 0
-0.84054255 3.6654062 0.35122734 0 27 0
-0.87709492 3.8248026 0.4588474 0 28 0
-0.92943799 4.0530581 0.58462191 0 29 0
-0.9810406 4.2780848 0.72161663 0 30 0
-0.25360698 1.0375296 -0.63341969 0 0 0
-0.26601717 1.0883008 -0.6296429 0 1 0
-0.27880633 1.1406225 -0.62441039 0 2 0
-0.29845047 1.2209885 -0.6313296 0 3 0
-0.31441161 1.286287 -0.62693757 0 4 0
-0.33291966 1.3620051 -0.624322 0 5 0
-0.35366428 1.4468734 -0.62210244 0 6 0
-0.3804473 1.5564451 -0.62583023 0 7 0
-0.40810341 1.6695888 -0.62562495 0 8 0
-0.43979701 1.7992504 -0.62579089 0 9 0
-0.47428957 1.9403626 -0.6234675 0 10 0
-0.51635987 2.1124761 -0.62361485 0 11 0
-0.55825233 2.2838621 -0.61536974 0 12 0
-0.57449496 2.3503122 -0.57345647 0 13 0
-0.59439957 2.4317436 -0.53211397 0 14 0
-0.61912566 2.5329006 -0.49111959 0 15 0
-0.6380015 2.6101232 -0.44160658 0 16 0
-0.65482557 2.678952 -0.38756955 0 17 0
-0.67510682 2.7619245 -0.33229849 0 18 0
-0.69339806 2.8367555 -0.2725791 0 19 0
-0.71688962 2.9328618 -0.21107101 0 20 0
-0.73943388 3.0250926 -0.1449783 0 21 0
-0.76201349 3.1174679 -0.07461644 0 22 0
-0.78551781 3.2136261 9.4444826e-05 0 23 0
-0.81424791 3.3311634 0.079927139 0 24 0
-0.84183365 3.4440196 0.16525835 0 25 0
-0.87300068 3.5715268 0.25724515 0 26 0
-0.9108243 3.7262666 0.35827166 0 27 0
-0.95112097 3.891124 0.46838897 0 28 0
-1.0143791 4.149919 0.60062617 0 29 0
-1.0727794 4.3888397 0.74281245 0 30 0
-0.26461229 1.0190903 -0.62441063 0 0 0
-0.2762453 1.063892 -0.61774534 0 1 0
-0.29691136 1.1434823 -0.62823814 0 2 0
-0.31383762 1.2086698 -0.62721848 0 3 0
-0.33456966 1.2885141 -0.63029265 0 4 0
-0.35598841 1.3710034 -0.63071769 0 5 0
-0.37756577 1.4541034 -0.62747049 0 6 0
-0.40115973 1.5449698 -0.62346107 0 7 0
-0.43155789 1.6620409 -0.62504727 0 8 0
-0.46364966 1.7856346 -0.6232996 0 9 0
-0.50332296 1.9384267 -0.62509632 0 10 0
-0.54682469 2.1059632 -0.62393886 0 11 0
-0.59378618 2.286824 -0.61839449 0 12 0
-0.61763775 2.3786824 -0.5824759 0 13 0
-0.63942337 2.4625847 -0.54080993 0 14 0
-0.65995657 2.5416632 -0.49459958 0 15 0
-0.68169546 2.6253853 -0.44579399 0 16 0
-0.70150775 2.7016876 -0.39227122 0 17 0
-0.7199499 2.7727132 -0.33480206 0 18 0
-0.74444026 2.8670318 -0.27648383 0 19 0
-0.76882023 2.9609253 -0.21386074 0 20 0
-0.79032564 3.0437481 -0.14639953 0 21 0
-0.81520939 3.1395819 -0.075417303 0 22 0
-0.84096146 3.2387598 9.5527452e-05 0 23 0
-0.8765623 3.3758678 0.08129248 0 24 0
-0.90891039 3.5004487 0.16857305 0 25 0
-0.94164491 3.6265178 0.2621499 0 26 0
-0.98284888 3.7852049 0.36525363 0 27 0
-1.0354491 3.987782 0.48175874 0 28 0
-1.1041738 4.2524586 0.61769104 0 29 0
-0.28074756 1.0209341 -0.62793827 0 0 0
-0.29834434 1.0849246 -0.63237262 0 1 0
-0.3120003 1.1345843 -0.62573886 0 2 0
-0.32937592 1.1977704 -0.62394506 0 3 0
-0.34766689 1.2642852 -0.6208114 0 4 0
-0.37109363 1.3494762 -0.6231941 0 5 0
-0.39903429 1.451082 -0.62856692 0 6 0
-0.42320958 1.538995 -0.62343061 0 7 0
-0.4550285 1.654704 -0.62467343 0 8 0
-0.48915926 1.7788199 -0.62330103 0 9 0
-0.53264242 1.9369459 -0.62701309 0 10 0
-0.57856995 2.1039605 -0.62573493 0 11 0
-0.62660325 2.2786329 -0.61854142 0 12 0
-0.65168417 2.3698392 -0.58253491 0 13 0
-0.67573863 2.4573128 -0.54172081 0 14 0
-0.70098108 2.5491066 -0.49794954 0 15 0
-0.72380167 2.6320934 -0.44864622 0 16 0
-0.74228674 2.6993141 -0.39342895 0 17 0
-0.76890069 2.7960954 -0.33891964 0 18 0
-0.79203093 2.880208 -0.2788192 0 19 0
-0.81490564 2.9633915 -0.21485934 0 20 0
-0.84164035 3.060612 -0.14777495 0 21 0
-0.86997384 3.1636462 -0.076286666 0 22 0
-0.90144402 3.2780869 9.7058029e-05 0 23 0
-0.93765301 3.4097605 0.082423374 0 24 0
-0.97663945 3.5515342 0.17168881 0 25 0
-1.0160816 3.6949646 0.26812157 0 26 0
-1.0631272 3.8660452 0.37448433 0 27 0
-1.1254215 4.0925779 0.49631423 0 28 0
-1.2039642 4.3781972 0.63839293 0 29 0
-0.29298887 1.0087496 -0.62295961 0 0 0
-0.31417093 1.0816786 -0.63303691 0 1 0
-0.3271777 1.1264604 -0.62377739 0 2 0
-0.35021099 1.2057632 -0.63065535 0 3 0
-0.36822867 1.2677975 -0.62506008 0 4 0
-0.39254457 1.3515161 -0.62666667 0 5 0
-0.41710201 1.4360665 -0.62458479 0 6 0
-0.44291493 1.5249394 -0.6202414 0 7 0
-0.48062128 1.654761 -0.62722778 0 8 0
-0.51372212 1.7687259 -0.62227684 0 9 0
-0.55672473 1.9167824 -0.62300164 0 10 0
-0.60896301 2.0966365 -0.62608498 0 11 0
-0.66702437 2.2965398 -0.62592989 0 12 0
-0.69106209 2.3793006 -0.58723193 0 13 0
-0.71805328 2.4722304 -0.5472191 0 14 0
-0.74023539 2.5486026 -0.49986956 0 15 0
-0.76010746 2.6170213 -0.44788572 0 16 0
-0.7869879 2.7095697 -0.39652491 0 17 0
-0.8130722 2.799377 -0.34069315 0 18 0
-0.84312958 2.9028633 -0.2821517 0 19 0
-0.86578774 2.9808745 -0.21700321 0 20 0
-0.89618373 3.0855269 -0.14958194 0 21 0
-0.93013543 3.2024212 -0.077534758 0 22 0
-0.96318191 3.3161991 9.8584555e-05 0 23 0
-0.99690831 3.4323177 0.083305031 0 24 0
-1.0440381 3.5945837 0.17447446 0 25 0
-1.0883048 3.7469921 0.27299929 0 26 0
-1.1462603 3.9465311 0.38383052 0 27 0
-1.2294862 4.2330747 0.51543385 0 28 0
-0.30953905 1.0114555 -0.62730247 0 0 0
-0.32645926 1.0667443 -0.62696725 0 1 0
-0.34421203 1.1247536 -0.62549633 0 2 0
-0.36337754 1.1873791 -0.62369633 0 3 0
-0.38423079 1.2555195 -0.62165457 0 4 0
-0.40784585 1.3326846 -0.62057817 0 5 0
-0.43858212 1.4331189 -0.62596899 0 6 0
-0.46780387 1.5286045 -0.62439162 0 7 0
-0.49818584 1.6278812 -0.61967856 0 8 0
-0.5389846 1.761196 -0.62227815 0 9 0
-0.58530349 1.9125483 -0.62428451 0 10 0
-0.63417977 2.0722573 -0.62145191 0 11 0
-0.70239496 2.2951586 -0.62822926 0 12 0
-0.72952056 2.3837948 -0.59085774 0 13 0
-0.75961131 2.4821198 -0.55175823 0 14 0
-0.78369498 2.560816 -0.50441349 0 15 0
-0.80445832 2.6286628 -0.45180246 0 16 0
-0.83377224 2.7244494 -0.40040794 0 17 0
-0.85801107 2.8036528 -0.34267306 0 18 0
-0.88563091 2.8939037 -0.28248405 0 19 0
-0.91976309 3.0054348 -0.21972704 0 20 0
-0.95376527 3.1165409 -0.15173173 0 21 0
-0.99026197 3.2357984 -0.078677975 0 22 0
-1.0289217 3.3621233 0.00010037734 0 23 0
-1.0763055 3.5169556 0.085724391 0 24 0
-1.1171682 3.6504793 0.17794545 0 25 0
-1.1713079 3.8273871 0.28004956 0 26 0
-1.2470591 4.074913 0.39801192 0 27 0
-1.3635905 4.4556932 0.54486144 0 28 0
-0.32334661 1.004943 -0.62606972 0 0 0
-0.33975527 1.0559402 -0.6234116 0 1 0
-0.36112747 1.1223638 -0.62697768 0 2 0
-0.38147399 1.1855996 -0.62556559 0 3 0
-0.40363017 1.2544597 -0.62392646 0 4 0
-0.42656702 1.3257462 -0.62012684 0 5 0
-0.46024817 1.4304253 -0.62760562 0 6 0
-0.49022582 1.5235941 -0.62514716 0 7 0
-0.52377725 1.6278701 -0.62246442 0 8 0
-0.56786853 1.7649033 -0.62639576 0 9 0
-0.61608684 1.9147631 -0.62782156 0 10 0
-0.66689461 2.0726707 -0.62437457 0 11 0
-0.72896791 2.2655909 -0.6229282 0 12 0
-0.76681828 2.3832278 -0.59337699 0 13 0
-0.79890734 2.4829588 -0.55442989 0 14 0
-0.82583296 2.5666423 -0.50783741 0 15 0
-0.85259825 2.6498272 -0.45749077 0 16 0
-0.8807711 2.7373869 -0.40412071 0 17 0
-0.91276723 2.8368289 -0.34828916 0 18 0
-0.94809628 2.9466295 -0.28892586 0 19 0
-0.97390097 3.0268292 -0.22228755 0 20 0
-1.0155071 3.1561387 -0.15435143 0 21 0
-1.0498542 3.2628872 -0.079693861 0 22 0
-1.0975579 3.4111481 0.00010229953 0 23 0
-1.1473724 3.5659683 0.087310411 0 24 0
-1.1923091 3.7056293 0.1814471 0 25 0
-1.2604315 3.9173498 0.28792268 0 26 0
-1.3769245 4.2794037 0.41986728 0 27 0
-1.5469083 4.8077035 0.59055382 0 28 0
-0.33983651 1.0065515 -0.63003767 0 0 0
-0.35761091 1.0591969 -0.62829196 0 1 0
-0.37869227 1.1216372 -0.62953532 0 2 0
-0.39732015 1.1768106 -0.62386501 0 3 0
-0.420562 1.2456499 -0.62247503 0 4 0
-0.45258269 1.3404911 -0.62998945 0 5 0
-0.47633073 1.4108297 -0.62193561 0 6 0
-0.51498258 1.5253115 -0.62881184 0 7 0
-0.55132478 1.6329523 -0.627361 0 8 0
-0.59207308 1.7536435 -0.6253432 0 9 0
-0.63683563 1.8862244 -0.62138927 0 10 0
-0.69689214 2.0641038 -0.62473476 0 11 0
-0.75976348 2.2503207 -0.621656 0 12 0
-0.80290163 2.3780904 -0.59489822 0 13 0
-0.84219825 2.4944818 -0.55963731 0 14 0
-0.87358487 2.5874448 -0.51437479 0 15 0
-0.90494496 2.6803293 -0.46494561 0 16 0
-0.92592138 2.7424588 -0.40678439 0 17 0
-0.97067428 2.875011 -0.35464638 0 18 0
-0.9988721 2.9585292 -0.29146469 0 19 0
-1.0373799 3.0725844 -0.22671501 0 20 0
-1.0769582 3.1898103 -0.15673596 0 21 0
-1.1190979 3.3146224 -0.081340358 0 22 0
-1.1650938 3.4508562 0.00010397984 0 23 0
-1.2160442 3.6017649 0.088603958 0 24 0
-1.2745842 3.7751527 0.18572561 0 25 0
-1.3910875 4.1202207 0.30426586 0 26 0
-1.5301152 4.5320024 0.44675365 0 27 0
-0.35236523 0.9963755 -0.6267609 0 0 0
-0.37060007 1.0479378 -0.62469584 0 1 0
-0.39547914 1.1182878 -0.63076788 0 2 0
-0.41273001 1.1670676 -0.62176806 0 3 0
-0.43991226 1.2439303 -0.62469822 0 4 0
-0.46979162 1.3284196 -0.6274122 0 5 0
-0.49795216 1.4080485 -0.6237877 0 6 0
-0.5348407 1.5123575 -0.62656331 0 7 0
-0.57341892 1.6214441 -0.62602884 0 8 0
-0.61198539 1.7304978 -0.62014961 0 9 0
-0.6717757 1.8995655 -0.62888753 0 10 0
-0.72524637 2.0507634 -0.62377501 0 11 0
-0.79532278 2.2489169 -0.62434906 0 12 0
-0.84365064 2.3855727 -0.59972936 0 13 0
-0.88214856 2.4944324 -0.56240141 0 14 0
-0.91573584 2.5894063 -0.51731747 0 15 0
-0.94529432 2.6729882 -0.4659715 0 16 0
-0.98163784 2.7757559 -0.41376501 0 17 0
-1.0155714 2.8717089 -0.35599571 0 18 0
-1.054535 2.9818857 -0.29522249 0 19 0
-1.090206 3.0827518 -0.22859323 0 20 0
-1.1390617 3.2208998 -0.15904842 0 21 0
-1.1902492 3.3656418 -0.083001934 0 22 0
-1.2395064 3.5049253 0.00010613274 0 23 0
-1.3013631 3.679836 0.090973429 0 24 0
-1.3696337 3.8728833 0.19147851 0 25 0
-1.5311158 4.3295026 0.32130617 0 26 0
-1.7113285 4.8390865 0.4793908 0 27 0
-0.36502829 0.98700964 -0.6240921 0 0 0
-0.38727444 1.0471616 -0.62747329 0 1 0
-0.41122356 1.1119182 -0.63043058 0 2 0
-0.43132156 1.1662617 -0.62456381 0 3 0
-0.45691913 1.2354757 -0.6236729 0 4 0
-0.48988548 1.3246143 -0.62886226 0 5 0
-0.52164406 1.4104872 -0.62811154 0 6 0
-0.555875 1.5030451 -0.62593746 0 7 0
-0.59601516 1.6115811 -0.62545049 0 8 0
-0.64181966 1.7354331 -0.62514645 0 9 0
-0.69691473 1.8844061 -0.62710702 0 10 0
-0.75873643 2.0515676 -0.62725872 0 11 0
-0.83504587 2.2579026 -0.63009739 0 12 0
-0.8851828 2.3934691 -0.60483783 0 13 0
-0.92330748 2.4965556 -0.5658018 0 14 0
-0.96132451 2.5993507 -0.52199966 0 15 0
-1.0030909 2.7122838 -0.47527599 0 16 0
-1.0316741 2.789571 -0.41798273 0 17 0
-1.0790282 2.917613 -0.36356369 0 18 0
-1.1144905 3.0135002 -0.29990113 0 19 0
-1.1580074 3.1311669 -0.2333885 0 20 0
-1.2073994 3.264719 -0.16204901 0 21 0
-1.2579913 3.401516 -0.084322073 0 22 0
-1.3199264 3.568984 0.00010863347 0 23 0
-1.3876538 3.7521138 0.093241781 0 24 0
-1.4968385 4.0473413 0.2011425 0 25 0
-1.6903079 4.5704679 0.34094959 0 26 0
-0.38132986 0.9874143 -0.62773484 0 0 0
-0.40087399 1.0380218 -0.62537074 0 1 0
-0.42400965 1.0979292 -0.62587607 0 2 0
-0.44927055 1.1633396 -0.6263786 0 3 0
-0.47671786 1.2344117 -0.6265161 0 4 0
-0.51024365 1.3212233 -0.63065511 0 5 0
-0.53788131 1.3927881 -0.6235944 0 6 0
-0.57137114 1.4795065 -0.61947727 0 7 0
-0.61969858 1.6046455 -0.62613708 0 8 0
-0.66487139 1.7216158 -0.62353331 0 9 0
-0.72183055 1.8691056 -0.62538946 0 10 0
-0.78959858 2.044584 -0.62851459 0 11 0
-0.86466056 2.2389493 -0.62819761 0 12 0
-0.92300743 2.3900325 -0.60724574 0 13 0
-0.96862406 2.508152 -0.57151353 0 14 0
-1.0107937 2.6173458 -0.52846473 0 15 0
-1.0484389 2.7148242 -0.47830182 0 16 0
-1.0916102 2.826612 -0.42583042 0 17 0
-1.1271828 2.9187236 -0.36567506 0 18 0
-1.1715589 3.0336308 -0.30354226 0 19 0
-1.2220953 3.1644893 -0.2371518 0 20 0
-1.2709496 3.2909927 -0.1642393 0 21 0
-1.3290622 3.4414694 -0.085775301 0 22 0
-1.4022397 3.630955 0.00011111929 0 23 0
-1.4933041 3.8667567 0.096611977 0 24 0
-1.6358713 4.2359195 0.21165636 0 25 0
-1.8869628 4.886095 0.36647215 0 26 0
-0.39291689 0.97563356 -0.62375689 0 0 0
-0.41259241 1.0244889 -0.62071204 0 1 0
-0.44086805 1.0946988 -0.62756753 0 2 0
-0.46478075 1.1540754 -0.62490833 0 3 0
-0.49413839 1.226972 -0.62626576 0 4 0
-0.52759838 1.3100548 -0.62886435 0 5 0
-0.55516398 1.3785018 -0.62069225 0 6 0
-0.59958959 1.4888129 -0.62690312 0 7 0
-0.63859284 1.5856601 -0.62223184 0 8 0
-0.69035703 1.7141932 -0.62435991 0 9 0
-0.74813926 1.8576696 -0.62508202 0 10 0
-0.81457365 2.0226297 -0.62528592 0 11 0
-0.89303446 2.217452 -0.62568837 0 12 0
-0.96463084 2.3952298 -0.61201161 0 13 0
-1.0163238 2.5235863 -0.57828593 0 14 0
-1.0587096 2.6288323 -0.53378898 0 15 0
-1.1053156 2.7445574 -0.48627779 0 16 0
-1.1471912 2.8485367 -0.43156293 0 17 0
-1.1940945 2.9650004 -0.37357593 0 18 0
-1.2380937 3.0742528 -0.30934834 0 19 0
-1.2923739 3.2090333 -0.24185151 0 20 0
-1.3507625 3.3540151 -0.16833211 0 21 0
-1.4164751 3.5171831 -0.088158689 0 22 0
-1.5056353 3.7385724 0.00011506049 0 23 0
-1.6190971 4.0203047 0.10101709 0 24 0
-1.7993445 4.4678683 0.22451004 0 25 0
-2.1183355 5.2599397 0.39674518 0 26 0
-0.40925968 0.97567898 -0.6274668 0 0 0
-0.42963475 1.0242534 -0.62423122 0 1 0
-0.46006304 1.0967946 -0.63247931 0 2 0
-0.4797796 1.1437992 -0.62299865 0 3 0
-0.50927359 1.2141131 -0.6233592 0 4 0
-0.54165602 1.2913132 -0.62352556 0 5 0
-0.57591593 1.3729891 -0.62185806 0 6 0
-0.62590307 1.4921588 -0.63201964 0 7 0
-0.66598344 1.5877109 -0.6267131 0 8 0
-0.71476454 1.7040055 -0.62431163 0 9 0
-0.77293146 1.8426759 -0.62369561 0 10 0
-0.84511751 2.0147681 -0.62653095 0 11 0
-0.92102659 2.1957362 -0.62321687 0 12 0
-1.0057406 2.3976951 -0.61625671 0 13 0
-1.0737398 2.5598059 -0.59004706 0 14 0
-1.1126133 2.6524808 -0.54176903 0 15 0
-1.1561635 2.7563047 -0.49124092 0 16 0
-1.2069337 2.8773417 -0.43849933 0 17 0
-1.2541859 2.9899912 -0.37894768 0 18 0
-1.3107406 3.1248181 -0.31629196 0 19 0
-1.3630042 3.2494152 -0.24634004 0 20 0
-1.4226704 3.3916597 -0.17122589 0 21 0
-1.5090148 3.5975058 -0.090704083 0 22 0
-1.6088394 3.8354883 0.00011873979 0 23 0
-1.7543694 4.1824331 0.10571099 0 24 0
-1.9723445 4.7020879 0.23767383 0 25 0
-0.42761046 0.97987032 -0.63403356 0 0 0
-0.44344744 1.0161608 -0.62310374 0 1 0
-0.46750158 1.0712808 -0.62156159 0 2 0
-0.49811739 1.1414371 -0.62553144 0 3 0
-0.5271101 1.2078739 -0.62396562 0 4 0
-0.56145996 1.2865866 -0.62505978 0 5 0
-0.59663153 1.3671825 -0.62303221 0 6 0
-0.64450723 1.4768896 -0.62939513 0 7 0
-0.6859737 1.5719101 -0.62428784 0 8 0
-0.74220669 1.7007682 -0.6269536 0 9 0
-0.80269378 1.8393747 -0.62640285 0 10 0
-0.86815685 1.9893832 -0.62243748 0 11 0
-0.95617241 2.191071 -0.62571323 0 12 0
-1.0500057 2.4060903 -0.62221348 0 13 0
-1.1277465 2.5842335 -0.59933722 0 14 0
-1.1666024 2.6732719 -0.54936993 0 15 0
-1.2131077 2.779839 -0.49847892 0 16 0
-1.2633567 2.8949845 -0.44389841 0 17 0
-1.3171977 3.0183613 -0.38489333 0 18 0
-1.3754727 3.1518986 -0.32099295 0 19 0
-1.4346592 3.2875247 -0.25076023 0 20 0
-1.5204731 3.4841676 -0.17697665 0 21 0
-1.6212655 3.7151337 -0.094245277 0 22 0
-1.7366354 3.9795039 0.00012395509 0 23 0
-1.9071078 4.3701415 0.11113387 0 24 0
-2.1503289 4.9274836 0.25059685 0 25 0
-0.43792111 0.9655593 -0.62876499 0 0 0
-0.46398401 1.0230246 -0.6313203 0 1 0
-0.48497221 1.0693009 -0.62437636 0 2 0
-0.51498497 1.1354752 -0.62623966 0 3 0
-0.55022633 1.2131778 -0.63070929 0 4 0
-0.5864135 1.2929659 -0.63217205 0 5 0
-0.62113273 1.3695172 -0.62808329 0 6 0
-0.66401571 1.4640687 -0.62791741 0 7 0
-0.70801032 1.561071 -0.62394392 0 8 0
-0.76762068 1.692504 -0.62789309 0 9 0
-0.82593375 1.8210769 -0.62413359 0 10 0
-0.9033531 1.9917765 -0.62716758 0 11 0
-0.98757643 2.1774781 -0.62580407 0 12 0
-1.0808518 2.3831379 -0.62021524 0 13 0
-1.1762881 2.5935628 -0.60534364 0 14 0
-1.2264102 2.7040756 -0.55925041 0 15 0
-1.2684842 2.7968433 -0.50473219 0 16 0
-1.314343 2.8979561 -0.44719285 0 17 0
-1.3840867 3.0517321 -0.39163482 0 18 0
-1.4523059 3.2021465 -0.32819363 0 19 0
-1.5310966 3.3758698 -0.25914392 0 20 0
-1.6213131 3.5747855 -0.1827396 0 21 0
-1.7291492 3.8125501 -0.097334415 0 22 0
-1.8759955 4.1363268 0.00012966299 0 23 0
-2.0751622 4.5754638 0.11709862 0 24 0
-2.3351054 5.1486049 0.26351523 0 25 0
-0.44610494 0.94732147 -0.62098306 0 0 0
-0.47533202 1.0093863 -0.6270383 0 1 0
-0.49894869 1.0595373 -0.62278157 0 2 0
-0.53218198 1.1301095 -0.62741727 0 3 0
-0.55874622 1.1865197 -0.62094444 0 4 0
-0.60293174 1.2803494 -0.63015842 0 5 0
-0.63712448 1.3529589 -0.62460774 0 6 0
-0.68253523 1.4493905 -0.62574804 0 7 0
-0.73185432 1.5541216 -0.62528914 0 8 0
-0.7864722 1.6701049 -0.62369567 0 9 0
-0.8532517 1.8119137 -0.6251148 0 10 0
-0.92974615 1.9743527 -0.62580746 0 11 0
-1.0221292 2.1705317 -0.62794805 0 12 0
-1.1220224 2.382659 -0.62420624 0 13 0
-1.2216079 2.5941327 -0.60949534 0 14 0
-1.2785341 2.7150176 -0.56524026 0 15 0
-1.3369907 2.8391528 -0.51576829 0 16 0
-1.3842843 2.9395823 -0.45662713 0 17 0
-1.4458724 3.0703673 -0.39664158 0 18 0
-1.5356463 3.2610056 -0.33644459 0 19 0
-1.6356381 3.4733422 -0.26839593 0 20 0
-1.7375906 3.6898422 -0.18987313 0 21 0
-1.8605502 3.9509518 -0.1015373 0 22 0
-2.0227485 4.2953863 0.00013554278 0 23 0
-2.2303157 4.7361636 0.12201588 0 24 0
-2.5155663 5.3419046 0.27522334 0 25 0
-0.4670752 0.95610613 -0.63105935 0 0 0
-0.48034227 0.98326397 -0.61501896 0 1 0
-0.51686996 1.0580363 -0.62618381 0 2 0
-0.54808527 1.1219344 -0.62716973 0 3 0
-0.58007509 1.1874177 -0.62569547 0 4 0
-0.61665773 1.2623026 -0.62555635 0 5 0
-0.65993339 1.3508883 -0.62794828 0 6 0
-0.70699638 1.4472265 -0.62911826 0 7 0
-0.75339025 1.5421951 -0.62476528 0 8 0
-0.80931365 1.6566706 -0.6229409 0 9 0
-0.87738711 1.7960174 -0.62389934 0 10 0
-0.95755005 1.9601115 -0.62557369 0 11 0
-1.0460398 2.1412508 -0.62374467 0 12 0
-1.1525615 2.3593013 -0.62234521 0 13 0
-1.2730204 2.6058815 -0.61647373 0 14 0
-1.3309343 2.7244318 -0.5711078 0 15 0
-1.3902806 2.8459141 -0.5205583 0 16 0
-1.4569927 2.9824741 -0.46648151 0 17 0
-1.537449 3.1471689 -0.40936401 0 18 0
-1.633445 3.3436732 -0.34735018 0 19 0
-1.7388651 3.559469 -0.2769461 0 20 0
-1.8521692 3.7914028 -0.19644335 0 21 0
-1.9930017 4.0796881 -0.10556806 0 22 0
-2.1860838 4.4749284 0.00014218113 0 23 0
-2.3767204 4.8651628 0.12620273 0 24 0
-2.7224705 5.572916 0.28910351 0 25 0
-0.4750089 0.93806249 -0.62357366 0 0 0
-0.50333452 0.99400073 -0.62617683 0 1 0
-0.53147382 1.0495712 -0.62561196 0 2 0
-0.55990827 1.1057243 -0.62252444 0 3 0
-0.59803689 1.181022 -0.62677175 0 4 0
-0.63661981 1.2572168 -0.62748742 0 5 0
-0.67852527 1.339973 -0.6273247 0 6 0
-0.72156256 1.4249643 -0.6238665 0 7 0
-0.77427959 1.5290717 -0.62387466 0 8 0
-0.831707 1.6424811 -0.62201804 0 9 0
-0.90710294 1.7913753 -0.62673289 0 10 0
-0.98224145 1.9397612 -0.62350202 0 11 0
-1.0842628 2.1412363 -0.62819695 0 12 0
-1.1934425 2.3568478 -0.62613988 0 13 0
-1.3174887 2.6018178 -0.61991012 0 14 0
-1.3877189 2.7405107 -0.57858294 0 15 0
-1.4517218 2.8669057 -0.52814466 0 16 0
-1.5205632 3.0028558 -0.47302505 0 17 0
-1.6301585 3.2192881 -0.42173669 0 18 0
-1.7412477 3.4386704 -0.35977098 0 19 0
-1.8481718 3.6498275 -0.28600544 0 20 0
-1.9735867 3.8975008 -0.2033834 0 21 0
-2.131629 4.2096076 -0.10970821 0 22 0
-2.3111959 4.5642219 0.00014605436 0 23 0
-2.5171685 4.970983 0.12986901 0 24 0
-0.49054638 0.93528748 -0.62633228 0 0 0
-0.51756042 0.9867931 -0.62623894 0 1 0
-0.54305869 1.0354087 -0.6217398 0 2 0
-0.57964408 1.1051633 -0.62681544 0 3 0
-0.60833424 1.1598647 -0.62010092 0 4 0
-0.65573865 1.250247 -0.62862897 0 5 0
-0.69970584 1.3340759 -0.62918824 0 6 0
-0.74437094 1.4192355 -0.62595892 0 7 0
-0.79900908 1.52341 -0.6261667 0 8 0
-0.85697937 1.6339374 -0.62336397 0 9 0
-0.92377114 1.7612841 -0.62076753 0 10 0
-1.0179715 1.9408888 -0.62848359 0 11 0
-1.1096023 2.1155944 -0.62526959 0 12 0
-1.2268311 2.3391056 -0.62602741 0 13 0
-1.3693349 2.6108069 -0.62665755 0 14 0
-1.4406158 2.7467127 -0.58418578 0 15 0
-1.5180894 2.8944256 -0.53716236 0 16 0
-1.6076515 3.0651867 -0.48641875 0 17 0
-1.7152922 3.2704172 -0.43160689 0 18 0
-1.8405623 3.5092602 -0.36987489 0 19 0
-1.9699464 3.7559471 -0.29650027 0 20 0
-2.094337 3.993113 -0.20991553 0 21 0
-2.2787836 4.3447833 -0.11406944 0 22 0
-2.4326174 4.6380868 0.00014951691 0 23 0
-2.6337831 5.0216341 0.13216364 0 24 0
-0.50185394 0.92443526 -0.62381142 0 0 0
-0.53182697 0.97964686 -0.62647051 0 1 0
-0.56429565 1.0394554 -0.62895536 0 2 0
-0.59826022 1.1020195 -0.62982464 0 3 0
-0.63241678 1.1649373 -0.62758821 0 4 0
-0.66975683 1.2337192 -0.62507486 0 5 0
-0.71227592 1.3120412 -0.62354046 0 6 0
-0.7637561 1.4068696 -0.62526244 0 7 0
-0.82132196 1.5129083 -0.62661809 0 8 0
-0.88388377 1.6281496 -0.62591845 0 9 0
-0.95757061 1.7638838 -0.62645042 0 10 0
-1.0454103 1.9256881 -0.62834245 0 11 0
-1.1426028 2.1047206 -0.62682527 0 12 0
-1.259526 2.3200979 -0.62570119 0 13 0
-1.4057348 2.5894206 -0.62628961 0 14 0
-1.4953728 2.7545373 -0.59034181 0 15 0
-1.5944021 2.9369533 -0.54923391 0 16 0
-1.6976111 3.1270683 -0.50004357 0 17 0
-1.8146365 3.3426337 -0.44451985 0 18 0
-1.9468877 3.586246 -0.3808873 0 19 0
-2.07708 3.8260658 -0.30435133 0 20 0
-2.2199502 4.0892382 -0.216617 0 21 0
-2.4158919 4.4501705 -0.11773212 0 22 0
-2.5504575 4.6980462 0.00015261101 0 23 0
-2.7334986 5.0352149 0.13353716 0 24 0
-0.51373398 0.91484475 -0.62223798 0 0 0
-0.54557854 0.97155267 -0.6262241 0 1 0
-0.57545292 1.0247523 -0.62497866 0 2 0
-0.60285926 1.0735568 -0.61842597 0 3 0
-0.64653224 1.1513286 -0.62517822 0 4 0
-0.69054461 1.2297047 -0.62798434 0 5 0
-0.73339009 1.3060029 -0.62559551 0 6 0
-0.77986872 1.3887709 -0.62211609 0 7 0
-0.84120029 1.4979886 -0.6253615 0 8 0
-0.90620345 1.6137446 -0.62530303 0 9 0
-0.97559196 1.7373099 -0.62190825 0 10 0
-1.0731618 1.9110599 -0.62851703 0 11 0
-1.1691239 2.0819468 -0.62496257 0 12 0
-1.2915865 2.3000252 -0.62520951 0 13 0
-1.4424264 2.5686374 -0.62619233 0 14 0
-1.5627246 2.7828612 -0.60114437 0 15 0
-1.669818 2.9735706 -0.56049389 0 16 0
-1.7933178 3.1934958 -0.51471776 0 17 0
-1.9207174 3.4203658 -0.45846611 0 18 0
-2.0525982 3.655216 -0.39129272 0 19 0
-2.195015 3.908828 -0.31340191 0 20 0
-2.3606536 4.2037935 -0.22445217 0 21 0
-2.4969976 4.4465914 -0.11857083 0 22 0
-2.6423087 4.7053576 0.0001540613 0 23 0
-2.8337297 5.046236 0.1348913 0 24 0
-0.53150666 0.9155497 -0.62782758 0 0 0
-0.56475365 0.97281945 -0.63218623 0 1 0
-0.59635192 1.0272492 -0.63164264 0 2 0
-0.62749344 1.0808922 -0.62776113 0 3 0
-0.66219062 1.14066 -0.62446791 0 4 0
-0.70491338 1.2142524 -0.62518179 0 5 0
-0.74576008 1.2846131 -0.62039912 0 6 0
-0.80153185 1.3806831 -0.62356848 0 7 0
-0.86494452 1.4899148 -0.6270951 0 8 0
-0.93343168 1.6078877 -0.62814635 0 9 0
-1.0087416 1.7376133 -0.62712121 0 10 0
-1.0941395 1.8847159 -0.6249395 0 11 0
-1.1973495 2.062501 -0.62420589 0 12 0
-1.3250387 2.2824526 -0.62552416 0 13 0
-1.4772444 2.5446353 -0.62543166 0 14 0
-1.6430219 2.8301964 -0.61638653 0 15 0
-1.7569201 3.0263922 -0.57513154 0 16 0
-1.8847501 3.2465866 -0.52756882 0 17 0
-2.0177195 3.4756339 -0.46969727 0 18 0
-2.1588686 3.7187705 -0.40136313 0 19 0
-2.3078225 3.975352 -0.32135129 0 20 0
-2.4762826 4.2655339 -0.22961761 0 21 0
-2.5857022 4.4540153 -0.11974342 0 22 0
-2.7470675 4.731976 0.00015620423 0 23 0
-2.9262421 5.0406141 0.13584673 0 24 0
-0.54259527 0.90458089 -0.6255675 0 0 0
-0.57361889 0.95630157 -0.62672347 0 1 0
-0.60340762 1.0059634 -0.62380111 0 2 0
-0.63695568 1.0618926 -0.62195784 0 3 0
-0.6778574 1.1300814 -0.62392431 0 4 0
-0.72915006 1.2155935 -0.63118112 0 5 0
-0.77587104 1.2934836 -0.62998194 0 6 0
-0.82924968 1.3824731 -0.62967312 0 7 0
-0.8838135 1.4734386 -0.62542081 0 8 0
-0.94885892 1.5818783 -0.6232273 0 9 0
-1.0329281 1.722033 -0.62676996 0 10 0
-1.1225791 1.8714937 -0.62581903 0 11 0
-1.2359462 2.060492 -0.62888747 0 12 0
-1.3499866 2.2506132 -0.6220302 0 13 0
-1.5125573 2.5216408 -0.62503713 0 14 0
-1.7012147 2.8361588 -0.62292451 0 15 0
-1.8384334 3.0649211 -0.58739412 0 16 0
-1.9828641 3.3057072 -0.54173243 0 17 0
-2.1145172 3.5251908 -0.48043534 0 18 0
-2.2651086 3.7762473 -0.41102365 0 19 0
-2.438705 4.0656567 -0.33143884 0 20 0
-2.5545251 4.2587442 -0.23119672 0 21 0
-2.6690545 4.4496808 -0.12064162 0 22 0
-2.8196099 4.7006769 0.00015648727 0 23 0
-3.0125473 5.0223303 0.1365021 0 24 0
-0.55951357 0.90322423 -0.63010317 0 0 0
-0.5896011 0.95179462 -0.62923604 0 1 0
-0.61828846 0.99810475 -0.6243518 0 2 0
-0.65825862 1.0626287 -0.62784314 0 3 0
-0.69592816 1.1234387 -0.62569237 0 4 0
-0.73619598 1.1884432 -0.62249142 0 5 0
-0.78591907 1.2687112 -0.62333173 0 6 0
-0.8451283 1.3642929 -0.62683809 0 7 0
-0.90692228 1.4640471 -0.62688029 0 8 0
-0.97214991 1.5693442 -0.62370735 0 9 0
-1.0549819 1.7030602 -0.62529641 0 10 0
-1.1519746 1.8596356 -0.62730324 0 11 0
-1.2516416 2.0205283 -0.62209433 0 12 0
-1.3860536 2.23751 -0.62382805 0 13 0
-1.547528 2.4981787 -0.62464803 0 14 0
-1.7376418 2.8050799 -0.62149751 0 15 0
-1.9244072 3.1065757 -0.6005947 0 16 0
-2.0811684 3.3596358 -0.55539495 0 17 0
-2.2193656 3.5827281 -0.4925558 0 18 0
-2.3709311 3.8274004 -0.4202421 0 19 0
-2.5259507 4.0776486 -0.33532956 0 20 0
-2.6382191 4.2588844 -0.23323043 0 21 0
-2.7466564 4.4339352 -0.12126819 0 22 0
-2.8981183 4.6784401 0.00015711185 0 23 0
-3.0649667 4.9477839 0.13565446 0 24 0
-0.56773734 0.88785857 -0.62498885 0 0 0
-0.59907395 0.93686438 -0.62497044 0 1 0
-0.6369338 0.99607176 -0.6287185 0 2 0
-0.66367328 1.0378884 -0.61877483 0 3 0
-0.70963311 1.1097628 -0.62366885 0 4 0
-0.75419784 1.1794555 -0.62337434 0 5 0
-0.80705136 1.2621108 -0.62570024 0 6 0
-0.85927325 1.3437783 -0.62299961 0 7 0
-0.92255402 1.4427402 -0.62334728 0 8 0
-1.0001205 1.5640428 -0.62722552 0 9 0
-1.074376 1.6801676 -0.62247366 0 10 0
-1.1773862 1.8412606 -0.62672544 0 11 0
-1.2860185 2.0111456 -0.62480891 0 12 0
-1.4254781 2.2292402 -0.62714678 0 13 0
-1.5852903 2.4791634 -0.62550306 0 14 0
-1.7785889 2.7814541 -0.6218397 0 15 0
-2.02053 3.1598148 -0.61641556 0 16 0
-2.17451 3.4006171 -0.56725705 0 17 0
-2.3102462 3.6128888 -0.50119716 0 18 0
-2.4681137 3.8597703 -0.42763135 0 19 0
-2.5994236 4.0651202 -0.33732444 0 20 0
-2.7104263 4.2387123 -0.23422632 0 21 0
-2.8281991 4.4228916 -0.12206082 0 22 0
-2.9605181 4.6298194 0.00015688603 0 23 0
-3.1199801 4.8791947 0.13498449 0 24 0
-0.57556605 0.87233669 -0.61979824 0 0 0
-0.61382788 0.93032682 -0.62640619 0 1 0
-0.64945513 0.98432404 -0.62710673 0 2 0
-0.69178319 1.0484771 -0.63092637 0 3 0
-0.73531657 1.1144569 -0.63215691 0 4 0
-0.77466667 1.1740966 -0.62633818 0 5 0
-0.82794189 1.2548413 -0.6279071 0 6 0
-0.87605315 1.3277594 -0.62132281 0 7 0
-0.93990725 1.4245377 -0.62123173 0 8 0
-1.0215353 1.5482544 -0.62669343 0 9 0
-1.1003335 1.6676821 -0.62361902 0 10 0
-1.2008575 1.8200378 -0.62528819 0 11 0
-1.3091568 1.9841779 -0.62218857 0 12 0
-1.4519999 2.2006731 -0.62489289 0 13 0
-1.6209598 2.4567513 -0.62563813 0 14 0
-1.8303822 2.7741551 -0.626001 0 15 0
-2.0882339 3.164959 -0.62318611 0 16 0
-2.2636154 3.4307697 -0.57763225 0 17 0
-2.4036033 3.6429377 -0.51008606 0 18 0
-2.5557911 3.8735957 -0.43317172 0 19 0
-2.681123 4.0635505 -0.3403438 0 20 0
-2.791033 4.2301321 -0.23593558 0 21 0
-2.8889258 4.3785 -0.12196439 0 22 0
-3.0312283 4.5941758 0.00015713235 0 23 0
-3.1922092 4.8381605 0.13509952 0 24 0
-3.5710342 5.4123135 0.30224279 0 25 0
-0.59562653 0.87522817 -0.62784576 0 0 0
-0.63466567 0.93259323 -0.63398385 0 1 0
-0.66605055 0.97871101 -0.62953991 0 2 0
-0.69556671 1.0220827 -0.62097085 0 3 0
-0.74742043 1.0982779 -0.62898356 0 4 0
-0.7947284 1.1677933 -0.6289795 0 5 0
-0.84225613 1.2376317 -0.62526405 0 6 0
-0.90349102 1.3276118 -0.62724102 0 7 0
-0.96818691 1.4226775 -0.62639982 0 8 0
-1.0393729 1.5272801 -0.62416142 0 9 0
-1.1287183 1.6585662 -0.62618744 0 10 0
-1.2322283 1.8106663 -0.62806368 0 11 0
-1.3472365 1.9796622 -0.62675524 0 12 0
-1.4767272 2.169939 -0.62210405 0 13 0
-1.6461759 2.418931 -0.62194359 0 14 0
-1.8741597 2.7539361 -0.62742758 0 15 0
-2.1372061 3.1404629 -0.6243223 0 16 0
-2.3679187 3.4794776 -0.59147906 0 17 0
-2.4834394 3.6492267 -0.51589108 0 18 0
-2.6146934 3.8420944 -0.43378973 0 19 0
-2.7421467 4.0293775 -0.34073406 0 20 0
-2.8449268 4.1804051 -0.23540914 0 21 0
-2.9665616 4.3591385 -0.1225953 0 22 0
-3.0867629 4.5357652 0.00015662966 0 23 0
-3.2369289 4.7564225 0.1340971 0 24 0
-3.5722525 5.2491555 0.29595649 0 25 0
-0.61364609 0.8745296 -0.63358051 0 0 0
-0.636527 0.90713799 -0.62280905 0 1 0
-0.67808473 0.96636349 -0.62777632 0 2 0
-0.72162992 1.0284213 -0.63103271 0 3 0
-0.75331336 1.0735745 -0.62094748 0 4 0
-0.80755025 1.1508695 -0.6260258 0 5 0
-0.86247063 1.2291385 -0.62714577 0 6 0
-0.92108899 1.3126777 -0.62634999 0 7 0
-0.99198467 1.4137138 -0.62864035 0 8 0
-1.0654309 1.5183847 -0.62669426 0 9 0
-1.1395562 1.6240233 -0.61924058 0 10 0
-1.2502072 1.7817162 -0.62416506 0 11 0
-1.3698412 1.952211 -0.62420791 0 12 0
-1.5127747 2.1559107 -0.62422609 0 13 0
-1.6927905 2.4124579 -0.62644488 0 14 0
-1.913541 2.7270577 -0.62747973 0 15 0
-2.1854556 3.114573 -0.62533003 0 16 0
-2.4417412 3.479815 -0.59741634 0 17 0
-2.5651891 3.655745 -0.52194977 0 18 0
-2.6918621 3.8362718 -0.43743774 0 19 0
-2.7856803 3.9699755 -0.33904791 0 20 0
-2.9089208 4.1456099 -0.23577027 0 21 0
-3.0207357 4.3049617 -0.12227511 0 22 0
-3.1412578 4.4767218 0.00015612741 0 23 0
-3.2852781 4.6819706 0.13331015 0 24 0
-3.5855844 5.1099482 0.29097155 0 25 0
-0.62448043 0.86341894 -0.63194203 0 0 0
-0.65388668 0.90407664 -0.62706882 0 1 0
-0.69286019 0.95796221 -0.62869674 0 2 0
-0.72253311 0.99898851 -0.61925524 0 3 0
-0.77291489 1.0686474 -0.6244325 0 4 0
-0.82818967 1.1450714 -0.62925565 0 5 0
-0.87826687 1.2143091 -0.62592936 0 6 0
-0.94012642 1.2998374 -0.62657976 0 7 0
-1.0008585 1.3838067 -0.62164807 0 8 0
-1.076779 1.488776 -0.62077129 0 9 0
-1.184957 1.6383449 -0.63110399 0 10 0
-1.2702342 1.7562509 -0.62154967 0 11 0
-1.4018161 1.9381785 -0.62607259 0 12 0
-1.5384295 2.127063 -0.62218553 0 13 0
-1.7273259 2.3882349 -0.6265108 0 14 0
-1.9433807 2.6869564 -0.62458915 0 15 0
-2.2294598 3.082495 -0.62523252 0 16 0
-2.5068362 3.4660013 -0.60114336 0 17 0
-2.6330762 3.640543 -0.52510649 0 18 0
-2.7528186 3.8061013 -0.43844551 0 19 0
-2.8590429 3.9529691 -0.34105551 0 20 0
-2.9603198 4.0929966 -0.23516373 0 21 0
-3.0821388 4.261426 -0.12227907 0 22 0
-3.1963513 4.4193382 0.00015570577 0 23 0
-3.3273215 4.6004205 0.13233066 0 24 0
-3.5854743 4.9573474 0.28517523 0 25 0
-0.63250381 0.84866375 -0.6277045 0 0 0
-0.66517377 0.89249885 -0.62557811 0 1 0
-0.70891887 0.95119399 -0.6308496 0 2 0
-0.74796736 1.0035874 -0.62867802 0 3 0
-0.79065567 1.0608646 -0.62643343 0 4 0
-0.83827072 1.1247522 -0.62461913 0 5 0
-0.8912183 1.1957947 -0.62289751 0 6 0
-0.94827253 1.2723475 -0.61980772 0 7 0
-1.030671 1.3829058 -0.62780637 0 8 0
-1.1076442 1.4861848 -0.62623739 0 9 0
-1.1888177 1.5950997 -0.62093669 0 10 0
-1.3053812 1.7514991 -0.62641639 0 11 0
-1.4222325 1.9082845 -0.62292814 0 12 0
-1.5818803 2.1224926 -0.62740737 0 13 0
-1.7706248 2.375741 -0.62981719 0 14 0
-1.9789871 2.6553116 -0.62375379 0 15 0
-2.2707546 3.0467916 -0.62451923 0 16 0
-2.5915384 3.4772041 -0.60945755 0 17 0
-2.6949997 3.6160235 -0.52707982 0 18 0
-2.8046949 3.7632072 -0.43808395 0 19 0
-2.9149106 3.9110894 -0.34100702 0 20 0
-3.0308352 4.0666318 -0.23611727 0 21 0
-3.1322823 4.2027488 -0.12186936 0 22 0
-3.2494988 4.3600245 0.00015523881 0 23 0
-3.3917398 4.5508766 0.13228846 0 24 0
-3.5937104 4.8218713 0.28031221 0 25 0
-0.63778734 0.83067089 -0.62108481 0 0 0
-0.67903399 0.88439167 -0.62664396 0 1 0
-0.71891642 0.93633556 -0.62775558 0 2 0
-0.76064825 0.99068815 -0.62735361 0 3 0
-0.80576795 1.0494533 -0.6264413 0 4 0
-0.85556561 1.1143111 -0.62555748 0 5 0
-0.91086215 1.1863307 -0.624695 0 6 0
-0.97868299 1.2746623 -0.62769508 0 7 0
-1.0432094 1.3587033 -0.62353384 0 8 0
-1.1289618 1.4703894 -0.62632662 0 9 0
-1.2234753 1.5934862 -0.62706149 0 10 0
-1.3251117 1.7258601 -0.62396628 0 11 0
-1.4570546 1.897706 -0.62621874 0 12 0
-1.6051738 2.0906203 -0.62471354 0 13 0
-1.7935216 2.3359294 -0.62600452 0 14 0
-2.0269511 2.6399541 -0.62689728 0 15 0
-2.320045 3.021687 -0.62611616 0 16 0
-2.6439216 3.4435124 -0.6101228 0 17 0
-2.7588139 3.5931513 -0.52944756 0 18 0
-2.8575604 3.7217612 -0.4379757 0 19 0
-2.9617925 3.8575161 -0.33999741 0 20 0
-3.0735931 4.0031281 -0.23496042 0 21 0
-3.1900568 4.1548133 -0.12179092 0 22 0
-3.3078811 4.3082709 0.00015506604 0 23 0
-3.4519963 4.4959702 0.13211514 0 24 0
-3.651859 4.7562766 0.27950901 0 25 0
-0.65483528 0.82806462 -0.6260801 0 0 0
-0.69163406 0.87459815 -0.62665498 0 1 0
-0.72985339 0.92292804 -0.62570643 0 2 0
-0.77218175 0.97645384 -0.62527478 0 3 0
-0.82378757 1.0417114 -0.62879413 0 4 0
-0.87341785 1.1044708 -0.62698734 0 5 0
-0.92909598 1.174878 -0.6256029 0 6 0
-0.99564016 1.2590257 -0.62694854 0 7 0
-1.0599384 1.3403333 -0.62200224 0 8 0
-1.1510298 1.4555221 -0.62694728 0 9 0
-1.2502785 1.5810258 -0.62913591 0 10 0
-1.354064 1.7122664 -0.62599462 0 11 0
-1.4844266 1.8771151 -0.6263712 0 12 0
-1.6365057 2.0694251 -0.62531549 0 13 0
-1.8276157 2.3110912 -0.62629443 0 14 0
-2.0590639 2.6037664 -0.62523854 0 15 0
-2.349838 2.9714615 -0.6226145 0 16 0
-2.6774676 3.3857617 -0.60661858 0 17 0
-2.81428 3.5587666 -0.53026217 0 18 0
-2.91186 3.6821601 -0.43817532 0 19 0
-3.0124378 3.8093445 -0.33951727 0 20 0
-3.1235988 3.9499121 -0.23443712 0 21 0
-3.2376268 4.0941048 -0.12135736 0 22 0
-3.3601389 4.2490263 0.00015464889 0 23 0
-3.4955921 4.4203119 0.13134873 0 24 0
-3.7181182 4.701705 0.27940091 0 25 0
-0.65990746 0.81036556 -0.61977631 0 0 0
-0.69604695 0.85474473 -0.61950487 0 1 0
-0.74189246 0.91104299 -0.62478417 0 2 0
-0.79216719 0.97278035 -0.63011861 0 3 0
-0.83536273 1.0258244 -0.62635767 0 4 0
-0.88602084 1.0880325 -0.62479091 0 5 0
-0.94570196 1.1613208 -0.62552768 0 6 0
-1.004958 1.2340872 -0.62162936 0 7 0
-1.0849308 1.3322936 -0.62541378 0 8 0
-1.1637392 1.4290702 -0.62266457 0 9 0
-1.2637906 1.5519332 -0.62469339 0 10 0
-1.3713063 1.6839625 -0.62275898 0 11 0
-1.5091259 1.8532048 -0.62553644 0 12 0
-1.6631955 2.0424018 -0.62427944 0 13 0
-1.8522079 2.274509 -0.62350142 0 14 0
-2.0994565 2.5781298 -0.62623435 0 15 0
-2.4167199 2.9677291 -0.62901604 0 16 0
-2.7235458 3.3445108 -0.60615021 0 17 0
-2.8584743 3.5102029 -0.52906829 0 18 0
-2.9520185 3.6250751 -0.43636569 0 19 0
-3.0607448 3.7585907 -0.33886364 0 20 0
-3.1700647 3.8928356 -0.23371863 0 21 0
-3.2898483 4.0399294 -0.12113489 0 22 0
-3.3929598 4.1665502 0.00015339896 0 23 0
-3.544384 4.352499 0.13082777 0 24 0
-3.7555437 4.6118031 0.27722445 0 25 0
-0.67143524 0.80083483 -0.61977386 0 0 0
-0.71686089 0.85501498 -0.62707335 0 1 0
-0.75466818 0.90010852 -0.62462926 0 2 0
-0.79777145 0.95151865 -0.62367904 0 3 0
-0.84578401 1.0087843 -0.62328118 0 4 0
-0.90568584 1.0802305 -0.62769055 0 5 0
-0.96092504 1.1461154 -0.62468201 0 6 0
-1.0361192 1.2358011 -0.62989849 0 7 0
-1.0977058 1.3092568 -0.62191159 0 8 0
-1.1862912 1.4149144 -0.62383115 0 9 0
-1.2879277 1.5361383 -0.62569189 0 10 0
-1.4057175 1.6766286 -0.62742352 0 11 0
-1.5386635 1.8351961 -0.62682742 0 12 0
-1.7018045 2.029778 -0.62780195 0 13 0
-1.8873599 2.2510936 -0.6244241 0 14 0
-2.1388445 2.5510445 -0.62702727 0 15 0
-2.4413261 2.9118207 -0.62450862 0 16 0
-2.8067236 3.3476379 -0.61393511 0 17 0
-2.9093716 3.4700685 -0.5292415 0 18 0
-2.9996932 3.5777969 -0.43579835 0 19 0
-3.1030574 3.7010815 -0.33764857 0 20 0
-3.2278466 3.8499203 -0.23389199 0 21 0
-3.3274822 3.9687576 -0.1204166 0 22 0
-3.4454319 4.1094389 0.00015309628 0 23 0
-3.587378 4.2787409 0.13014083 0 24 0
-3.8255389 4.5628004 0.27754188 0 25 0
-0.69455546 0.80473101 -0.63041842 0 0 0
-0.73227775 0.84843707 -0.62987167 0 1 0
-0.77470493 0.89759439 -0.63051504 0 2 0
-0.81599593 0.94543523 -0.62728292 0 3 0
-0.86241096 0.99921298 -0.62493032 0 4 0
-0.90837932 1.0524732 -0.6190533 0 5 0
-0.9781332 1.133292 -0.62525952 0 6 0
-1.0499405 1.2164898 -0.6276511 0 7 0
-1.1155746 1.2925353 -0.62148988 0 8 0
-1.2051218 1.3962871 -0.62315989 0 9 0
-1.3128109 1.5210587 -0.62713927 0 10 0
-1.4202777 1.6455727 -0.62334549 0 11 0
-1.5525068 1.798777 -0.62191451 0 12 0
-1.7338177 2.0088487 -0.62894005 0 13 0
-1.9260896 2.2316203 -0.62660557 0 14 0
-2.170471 2.5147669 -0.62568247 0 15 0
-2.4832096 2.8771148 -0.62462419 0 16 0
-2.8466206 3.2981725 -0.6122731 0 17 0
-2.9592054 3.4286165 -0.52932525 0 18 0
-3.0462842 3.5295084 -0.43518302 0 19 0
-3.15607 3.6567092 -0.33768713 0 20 0
-3.2661166 3.7842121 -0.23271637 0 21 0
-3.375844 3.9113455 -0.12012843 0 22 0
-3.4918942 4.0458045 0.000152572 0 23 0
-3.6307895 4.2067323 0.12951805 0 24 0
-3.9069104 4.5266533 0.27871618 0 25 0
-0.70565033 0.79431266 -0.63010472 0 0 0
-0.73416835 0.82641381 -0.62125957 0 1 0
-0.77469325 0.87203056 -0.62028331 0 2 0
-0.83121401 0.93565297 -0.628622 0 3 0
-0.87296593 0.98265088 -0.62232304 0 4 0
-0.92975265 1.0465727 -0.62334645 0 5 0
-0.99185556 1.1164786 -0.62375206 0 6 0
-1.0652326 1.1990751 -0.6264686 0 7 0
-1.1461971 1.2902124 -0.62819713 0 8 0
-1.2266669 1.3807931 -0.624017 0 9 0
-1.3273346 1.4941093 -0.6237973 0 10 0
-1.4541209 1.6368257 -0.62785202 0 11 0
-1.5821216 1.7809093 -0.62350255 0 12 0
-1.7485086 1.9682021 -0.62398589 0 13 0
-1.9628643 2.209491 -0.62821639 0 14 0
-2.1994929 2.4758511 -0.62376904 0 15 0
-2.5274651 2.8450317 -0.62544888 0 16 0
-2.8638546 3.2236874 -0.60599327 0 17 0
-2.9962587 3.3727274 -0.52726388 0 18 0
-3.1035297 3.4934766 -0.43617287 0 19 0
-3.2009764 3.6031671 -0.33693925 0 20 0
-3.3171959 3.7339892 -0.2325239 0 21 0
-3.4257605 3.8561945 -0.1199283 0 22 0
-3.5446525 3.9900248 0.00015236619 0 23 0
-3.6992242 4.1640177 0.12981986 0 24 0
-3.9738891 4.4731932 0.27889818 0 25 0
-0.70803142 0.77438182 -0.62226969 0 0 0
-0.75308919 0.82366198 -0.62722999 0 1 0
-0.8018285 0.87696868 -0.63189477 0 2 0
-0.83929497 0.91794616 -0.62473273 0 3 0
-0.89051032 0.973961 -0.62482798 0 4 0
-0.94957823 1.0385642 -0.62660772 0 5 0
-1.0180004 1.1133983 -0.63010716 0 6 0
-1.0843769 1.185995 -0.62767965 0 7 0
-1.1621761 1.2710848 -0.62691921 0 8 0
-1.2612556 1.3794491 -0.63150358 0 9 0
-1.3576154 1.4848388 -0.62797558 0 10 0
-1.4696521 1.6073748 -0.62456012 0 11 0
-1.6133615 1.7645514 -0.62579638 0 12 0
-1.7784026 1.9450586 -0.62465477 0 13 0
-1.9983608 2.1856291 -0.62950015 0 14 0
-2.2388239 2.4486263 -0.62491959 0 15 0
-2.5668392 2.8073804 -0.6251846 0 16 0
-2.8920546 3.1630719 -0.60231858 0 17 0
-3.0315158 3.3156025 -0.5250631 0 18 0
-3.1310205 3.4244318 -0.43310347 0 19 0
-3.2588766 3.5642693 -0.33762917 0 20 0
-3.3696303 3.6854019 -0.2324779 0 21 0
-3.4804988 3.8066602 -0.11992483 0 22 0
-3.6026511 3.9402595 0.00015241935 0 23 0
-3.7859423 4.140727 0.13076977 0 24 0
-4.0757637 4.4577074 0.28154114 0 25 0
-0.72123146 0.76649618 -0.62416464 0 0 0
-0.76258266 0.81044257 -0.62541127 0 1 0
-0.81224203 0.86321861 -0.63029975 0 2 0
-0.85318607 0.90673226 -0.62534797 0 3 0
-0.90663868 0.9635396 -0.62640345 0 4 0
-0.96051782 1.0208002 -0.62412095 0 5 0
-1.0242599 1.0885428 -0.62427372 0 6 0
-1.0991725 1.1681569 -0.62650132 0 7 0
-1.1830795 1.2573299 -0.62842274 0 8 0
-1.2765735 1.3566916 -0.62938577 0 9 0
-1.3738997 1.460126 -0.62577671 0 10 0
-1.4968328 1.5907745 -0.62637067 0 11 0
-1.6477491 1.7511623 -0.62934786 0 12 0
-1.8146329 1.9285198 -0.62762052 0 13 0
-2.0210795 2.147923 -0.62690783 0 14 0
-2.2804291 2.4235497 -0.62678581 0 15 0
-2.6002762 2.7634704 -0.62363064 0 16 0
-2.93784 3.1222198 -0.60248506 0 17 0
-3.085988 3.2796655 -0.52631319 0 18 0
-3.1907463 3.3909984 -0.43460661 0 19 0
-3.2927742 3.4994297 -0.33591732 0 20 0
-3.4124017 3.626565 -0.23182376 0 21 0
-3.5375628 3.7595813 -0.12002457 0 22 0
-3.6569555 3.8864672 0.00015234771 0 23 0
-3.8425732 4.0837345 0.13069348 0 24 0
-4.1977034 4.4611526 0.28552425 0 25 0
-0.73220849 0.75617886 -0.62423348 0 0 0
-0.77152503 0.79678249 -0.62332797 0 1 0
-0.82118052 0.84806359 -0.62775201 0 2 0
-0.8690933 0.89754486 -0.62752676 0 3 0
-0.91801798 0.94807118 -0.62482572 0 4 0
-0.97856444 1.0105999 -0.62638396 0 5 0
-1.0399357 1.0739801 -0.6243946 0 6 0
-1.1094249 1.1457442 -0.6229338 0 7 0
-1.1914291 1.2304331 -0.62343913 0 8 0
-1.2838916 1.3259224 -0.62357295 0 9 0
-1.3921304 1.4377047 -0.62464333 0 10 0
-1.5170417 1.5667052 -0.6253792 0 11 0
-1.6570091 1.7112547 -0.62346548 0 12 0
-1.8334457 1.8934673 -0.62468952 0 13 0
-2.0454211 2.1123822 -0.62501562 0 14 0
-2.3014715 2.3768148 -0.62315488 0 15 0
-2.6570508 2.7440348 -0.62776291 0 16 0
-2.9886816 3.0865221 -0.60378957 0 17 0
-3.1255271 3.2278476 -0.52512306 0 18 0
-3.2436554 3.3498433 -0.43523782 0 19 0
-3.3450861 3.4545944 -0.33617511 0 20 0
-3.4775884 3.5914347 -0.23273614 0 21 0
-3.5975585 3.715332 -0.12024352 0 22 0
-3.7237389 3.8456433 0.0001528211 0 23 0
-3.9310424 4.0597334 0.1317126 0 24 0
-0.74903309 0.75172102 -0.62933958 0 0 0
-0.78650498 0.78932738 -0.62623852 0 1 0
-0.83623725 0.83923811 -0.63001472 0 2 0
-0.88038015 0.88353944 -0.62648088 0 3 0
-0.92582798 0.92915034 -0.62102592 0 4 0
-0.99117315 0.99473006 -0.62527698 0 5 0
-1.0569652 1.0607582 -0.62543917 0 6 0
-1.1330383 1.1371043 -0.62698954 0 7 0
-1.2190726 1.2234472 -0.6286763 0 8 0
-1.3072273 1.3119183 -0.62572241 0 9 0
-1.4256197 1.4307356 -0.63041657 0 10 0
-1.5372603 1.5427768 -0.62454689 0 11 0
-1.7003655 1.7064674 -0.63052392 0 12 0
-1.8530838 1.8597337 -0.62224716 0 13 0
-2.071239 2.0786717 -0.62374932 0 14 0
-2.3431716 2.3515801 -0.62526804 0 15 0
-2.6800606 2.6896782 -0.62403959 0 16 0
-3.034802 3.0456924 -0.60423803 0 17 0
-3.1661971 3.1775591 -0.52426094 0 18 0
-3.2969837 3.308815 -0.43599391 0 19 0
-3.4108405 3.4230804 -0.3378247 0 20 0
-3.5242939 3.5369411 -0.23244996 0 21 0
-3.6376746 3.6507287 -0.11982553 0 22 0
-3.8099797 3.8236518 0.00015409852 0 23 0
-4.0301185 4.0445809 0.13307889 0 24 0
-0.75013596 0.73158175 -0.62140441 0 0 0
-0.81411201 0.79397541 -0.63910586 0 1 0
-0.85626507 0.83508581 -0.63603306 0 2 0
-0.89162165 0.86956787 -0.62555927 0 3 0
-0.94067317 0.91740614 -0.62211186 0 4 0
-1.0039561 0.97912377 -0.62443596 0 5 0
-1.0690264 1.0425845 -0.62368178 0 6 0
-1.1462327 1.1178813 -0.62537253 0 7 0
-1.2263747 1.196041 -0.62354964 0 8 0
-1.3222761 1.2895703 -0.6240266 0 9 0
-1.4397175 1.4041069 -0.62769908 0 10 0
-1.5684731 1.5296779 -0.62826812 0 11 0
-1.7124196 1.6700639 -0.62606543 0 12 0
-1.895088 1.848214 -0.62740439 0 13 0
-2.1093223 2.0571494 -0.62628657 0 14 0
-2.3897629 2.3306534 -0.62873447 0 15 0
-2.7278478 2.6603761 -0.6262359 0 16 0
-3.0834861 3.0072179 -0.60529906 0 17 0
-3.2293248 3.1494493 -0.52719539 0 18 0
-3.3362188 3.2536993 -0.43497917 0 19 0
-3.4508102 3.3654563 -0.33697784 0 20 0
-3.5715053 3.483166 -0.23225172 0 21 0
-3.6985698 3.6070876 -0.12011843 0 22 0
-3.8607433 3.76525 0.00015395615 0 23 0
-4.1312518 4.0290675 0.13450031 0 24 0
-0.76417744 0.72422808 -0.624385 0 0 0
-0.80543423 0.76332808 -0.6236524 0 1 0
-0.84996158 0.80552769 -0.62272269 0 2 0
-0.91038245 0.86278987 -0.6299929 0 3 0
-0.96262866 0.91230476 -0.62793171 0 4 0
-1.020058 0.96673185 -0.6257804 0 5 0
-1.0809873 1.0244759 -0.62204129 0 6 0
-1.1646765 1.10379 -0.6267513 0 7 0
-1.2544935 1.1889116 -0.62912959 0 8 0
-1.3346189 1.2648484 -0.62124389 0 9 0
-1.4506056 1.3747715 -0.62380302 0 10 0
-1.5746064 1.4922898 -0.62210524 0 11 0
-1.7412473 1.6502192 -0.62790495 0 12 0
-1.9083716 1.8086065 -0.62316781 0 13 0
-2.1275001 2.0162795 -0.62305105 0 14 0
-2.4076455 2.2817798 -0.6247825 0 15 0
-2.7622449 2.6178415 -0.62546629 0 16 0
-3.1306958 2.9670305 -0.60616767 0 17 0
-3.2772813 3.105953 -0.52771264 0 18 0
-3.3768847 3.2003493 -0.43426424 0 19 0
