# .PCD v0.7 - Point Cloud Data file format
VERSION 0.7
FIELDS x y z intensity ring time
SIZE 4 4 4 4 2 4
TYPE F F F F U F
COUNT 1 1 1 1 1 1
WIDTH 1202
HEIGHT 1
VIEWPOINT 0 0 0 1 0 0 0
POINTS 1202
DATA ascii
2.6102724 -8.7526455 -0.63852352 0 20 0
0.31830981 -1.0141131 -0.63034791 0 0 0
0.33278129 -1.0602182 -0.62451583 0 1 0
0.3487587 -1.1111212 -0.61928773 0 2 0
0.37363371 -1.1903712 -0.62665695 0 3 0
0.39640158 -1.2629081 -0.62670195 0 4 0
0.41765025 -1.3306049 -0.6209861 0 5 0
0.44598454 -1.420876 -0.6220001 0 6 0
0.47984442 -1.5287513 -0.6258387 0 7 0
0.51521641 -1.641444 -0.62622947 0 8 0
0.55575842 -1.7706079 -0.6269933 0 9 0
0.60022277 -1.9122684 -0.62557971 0 10 0
0.65233588 -2.0782971 -0.62464768 0 11 0
0.71635944 -2.2822719 -0.62608957 0 12 0
0.78982335 -2.5163229 -0.62509221 0 13 0
0.88002574 -2.8037014 -0.62462801 0 14 0
0.99676102 -3.175612 -0.62690169 0 15 0
1.1421248 -3.6387308 -0.62679762 0 16 0
1.3363105 -4.2573929 -0.62709206 0 17 0
1.6068196 -5.1192164 -0.62707996 0 18 0
2.1577401 -6.8744111 -0.67252588 0 19 0
2.7508335 -8.7639656 -0.642156 0 20 0
0.33017263 -1.0015107 -0.62538803 0 0 0
0.3489998 -1.0586191 -0.62645221 0 1 0
0.3712765 -1.1261908 -0.63058424 0 2 0
0.39105502 -1.1861849 -0.62733549 0 3 0
0.41276467 -1.2520367 -0.62417501 0 4 0
0.43605146 -1.3226724 -0.62013334 0 5 0
0.47211573 -1.432066 -0.62979227 0 6 0
0.50455672 -1.5304691 -0.62943399 0 7 0
0.53801137 -1.6319467 -0.62548 0 8 0
0.57911581 -1.7566286 -0.62491435 0 9 0
0.62936223 -1.9090408 -0.62740654 0 10 0
0.6818555 -2.0682683 -0.62450284 0 11 0
0.74804437 -2.2690387 -0.62533259 0 12 0
0.82963705 -2.5165331 -0.62803012 0 13 0
0.9229998 -2.7997301 -0.62662244 0 14 0
1.0413541 -3.1587331 -0.62644792 0 15 0
1.1925262 -3.6172829 -0.62597924 0 16 0
1.3950653 -4.2316437 -0.62617636 0 17 0
1.6742705 -5.0785551 -0.62497067 0 18 0
2.2422647 -6.8014483 -0.6684593 0 19 0
2.8939648 -8.7782459 -0.64617127 0 20 0
0.34550592 -0.99967301 -0.62726432 0 0 0
0.36595294 -1.0588336 -0.62961435 0 1 0
0.38471705 -1.113125 -0.6262874 0 2 0
0.40591457 -1.174457 -0.62414181 0 3 0
0.43242204 -1.2511526 -0.62675571 0 4 0
0.45857543 -1.3268238 -0.62509316 0 5 0
0.48963115 -1.4166791 -0.62604344 0 6 0
0.51922494 -1.5023047 -0.62084377 0 7 0
0.56355035 -1.630554 -0.6279735 0 8 0
0.60775679 -1.7584592 -0.62859589 0 9 0
0.65388721 -1.8919311 -0.62479538 0 10 0
0.7092008 -2.0519731 -0.62258393 0 11 0
0.77906168 -2.2541058 -0.62422645 0 12 0
0.86622274 -2.5062943 -0.62850469 0 13 0
0.96265519 -2.7853079 -0.6264143 0 14 0
1.0881487 -3.148406 -0.62742448 0 15 0
1.2448422 -3.6017764 -0.62631506 0 16 0
1.4500613 -4.1955495 -0.62384278 0 17 0
1.7498251 -5.0628738 -0.626059 0 18 0
2.3042312 -6.6669698 -0.65841651 0 19 0
3.296627 -9.5383282 -0.70552248 0 20 0
0.36124206 -0.99867362 -0.62981713 0 0 0
0.37730166 -1.0430713 -0.62338907 0 1 0
0.39650336 -1.0961554 -0.61986935 0 2 0
0.42535716 -1.1759233 -0.62809229 0 3 0
0.44913694 -1.2416638 -0.62515879 0 4 0
0.48066694 -1.3288302 -0.6292153 0 5 0
0.51098561 -1.412648 -0.62742984 0 6 0
0.54606622 -1.5096302 -0.62703699 0 7 0
0.58703721 -1.6228968 -0.62819618 0 8 0
0.63712525 -1.7613679 -0.63283074 0 9 0
0.67786729 -1.8740015 -0.62201482 0 10 0
0.74236476 -2.0523083 -0.62584549 0 11 0
0.81315923 -2.2480235 -0.62570119 0 12 0
0.89873344 -2.4845982 -0.62622571 0 13 0
1.005674 -2.7802413 -0.62844777 0 14 0
1.1248654 -3.1097524 -0.62286627 0 15 0
1.2970536 -3.5857761 -0.62669688 0 16 0
1.5169941 -4.1938138 -0.6267491 0 17 0
1.820576 -5.033083 -0.6255334 0 18 0
2.3857062 -6.5954165 -0.65465534 0 19 0
3.5245945 -9.7439365 -0.72438806 0 20 0
0.37150785 -0.98284483 -0.62312436 0 0 0
0.39404336 -1.0424639 -0.62633264 0 1 0
0.41429454 -1.0960395 -0.62309337 0 2 0
0.44157776 -1.1682187 -0.62728876 0 3 0
0.46611628 -1.2331368 -0.62416071 0 4 0
0.49626842 -1.312906 -0.62497443 0 5 0
0.5273537 -1.3951439 -0.62294418 0 6 0
0.56641036 -1.4984704 -0.625705 0 7 0
0.60792512 -1.6083001 -0.62585014 0 8 0
0.65531558 -1.7336742 -0.62618673 0 9 0
0.70872885 -1.874982 -0.62564325 0 10 0
0.7704792 -2.0383461 -0.62488669 0 11 0
0.84961253 -2.2476976 -0.62893081 0 12 0
0.93513292 -2.4739466 -0.62685049 0 13 0
1.0407133 -2.7532654 -0.62565321 0 14 0
1.1719733 -3.1005211 -0.62431329 0 15 0
1.3450748 -3.5584707 -0.62522548 0 16 0
1.5750613 -4.166913 -0.62603396 0 17 0
1.8955877 -5.0148835 -0.62657946 0 18 0
2.4393663 -6.4534807 -0.64396667 0 19 0
3.7171752 -9.8339958 -0.73496348 0 20 0
0.38787973 -0.9833684 -0.626912 0 0 0
0.41015086 -1.0398312 -0.6282137 0 1 0
0.42932129 -1.0884328 -0.6221987 0 2 0
0.46166036 -1.1704201 -0.63195425 0 3 0
0.4891451 -1.2401005 -0.63116455 0 4 0
0.5164206 -1.3092504 -0.62668878 0 5 0
0.54697257 -1.3867071 -0.62260908 0 6 0
0.58634001 -1.4865129 -0.62415248 0 7 0
0.62937057 -1.5956057 -0.62435186 0 8 0
0.68378788 -1.7335669 -0.62961859 0 9 0
0.73219371 -1.8562872 -0.62283844 0 10 0
0.80489266 -2.0405965 -0.62904406 0 11 0
0.87610912 -2.2211473 -0.62494665 0 12 0
0.96943742 -2.4577572 -0.62620014 0 13 0
1.0811752 -2.7410393 -0.6263274 0 14 0
1.2213554 -3.0964301 -0.62694538 0 15 0
1.4065733 -3.5660017 -0.63002151 0 16 0
1.6351024 -4.1453781 -0.62625057 0 17 0
1.9686357 -4.9909649 -0.62704742 0 18 0
2.4996259 -6.337153 -0.63586384 0 19 0
3.888216 -9.857563 -0.74080831 0 20 0
0.40006936 -0.97322905 -0.62403476 0 0 0
0.4285447 -1.0424997 -0.6334669 0 1 0
0.44757849 -1.0888022 -0.62600797 0 2 0
0.47450316 -1.1543006 -0.62685364 0 3 0
0.50423092 -1.2266177 -0.62791139 0 4 0
0.53550851 -1.3027053 -0.62716061 0 5 0
0.56968856 -1.3858534 -0.62582278 0 6 0
0.61123049 -1.4869105 -0.6279285 0 7 0
0.65030998 -1.5819772 -0.62259758 0 8 0
0.70767307 -1.7215215 -0.62885827 0 9 0
0.76694596 -1.8657118 -0.62961948 0 10 0
0.83130378 -2.0222719 -0.62699902 0 11 0
0.90740675 -2.2074039 -0.62467009 0 12 0
1.0044148 -2.4433904 -0.62613851 0 13 0
1.1186184 -2.7212079 -0.62539047 0 14 0
1.2625499 -3.0713432 -0.62546086 0 15 0
1.4476768 -3.521692 -0.62578994 0 16 0
1.7008651 -4.1376114 -0.62869072 0 17 0
2.04339 -4.9708543 -0.62813109 0 18 0
2.5656991 -6.2414503 -0.62988144 0 19 0
4.0492797 -9.8504839 -0.74455577 0 20 0
0.42052567 -0.98275381 -0.63393658 0 0 0
0.43684945 -1.0209019 -0.62407875 0 1 0
0.46297094 -1.081947 -0.62581247 0 2 0
0.49561098 -1.1582257 -0.63277274 0 3 0
0.51493365 -1.203382 -0.61972642 0 4 0
0.55379736 -1.2942051 -0.62682027 0 5 0
0.58629549 -1.3701521 -0.62245822 0 6 0
0.63169569 -1.4762508 -0.62718099 0 7 0
0.67783177 -1.5840691 -0.62717497 0 8 0
0.7266348 -1.6981202 -0.62404531 0 9 0
0.78635806 -1.8376914 -0.62389791 0 10 0
0.86043054 -2.0107963 -0.62719524 0 11 0
0.943766 -2.2055483 -0.6279034 0 12 0
1.0349774 -2.4187062 -0.62354535 0 13 0
1.1597005 -2.7101796 -0.62660664 0 14 0
1.3088918 -3.0588346 -0.62666458 0 15 0
1.4957253 -3.4954579 -0.62486851 0 16 0
1.7663462 -4.1278896 -0.63099051 0 17 0
2.1108918 -4.9330807 -0.62711155 0 18 0
2.6733432 -6.24751 -0.63428968 0 19 0
4.2347665 -9.8965025 -0.75253856 0 20 0
0.42810872 -0.96216303 -0.62454301 0 0 0
0.4533695 -1.018936 -0.62677968 0 1 0
0.47598302 -1.0697592 -0.62263983 0 2 0
0.50378579 -1.1322453 -0.6224547 0 3 0
0.54398274 -1.2225869 -0.63356155 0 4 0
0.57629633 -1.2952108 -0.63123786 0 5 0
0.60781133 -1.3660399 -0.6244784 0 6 0
0.65340942 -1.4685204 -0.62780583 0 7 0
0.69661343 -1.5656203 -0.62375444 0 8 0
0.74709761 -1.6790822 -0.62091517 0 9 0
0.81458408 -1.8307562 -0.6254378 0 10 0
0.89190364 -2.00453 -0.6291582 0 11 0
0.97420406 -2.1894979 -0.62723958 0 12 0
1.070345 -2.4055722 -0.62404507 0 13 0
1.1921366 -2.6792955 -0.6233474 0 14 0
1.3545111 -3.0442281 -0.62757987 0 15 0
1.556617 -3.4984555 -0.62932295 0 16 0
1.8288302 -4.1102476 -0.6322304 0 17 0
2.186336 -4.9137325 -0.62856585 0 18 0
4.2545795 -9.5620546 -0.97688746 0 19 0
4.4155436 -9.9238176 -0.7593438 0 20 0
0.43860385 -0.94894582 -0.61997527 0 0 0
0.47083303 -1.0186757 -0.63070047 0 1 0
0.49651974 -1.0742503 -0.62932587 0 2 0
0.51965636 -1.1243079 -0.62211651 0 3 0
0.55692208 -1.2049345 -0.62848043 0 4 0
0.59212363 -1.2810951 -0.62842464 0 5 0
0.62971228 -1.3624204 -0.62687999 0 6 0
0.66658551 -1.4421979 -0.6205681 0 7 0
0.72023469 -1.5582712 -0.6248697 0 8 0
0.78403115 -1.6962986 -0.63136697 0 9 0
0.84537739 -1.8290249 -0.62891573 0 10 0
0.91552657 -1.9807969 -0.62575811 0 11 0
1.0006121 -2.1648846 -0.62422746 0 12 0
1.1062603 -2.3934608 -0.62494683 0 13 0
1.2361249 -2.6744306 -0.62626779 0 14 0
1.3930414 -3.0139289 -0.62538004 0 15 0
1.6011022 -3.4640813 -0.62719774 0 16 0
1.912127 -4.137002 -0.64049 0 17 0
2.2692802 -4.9097242 -0.63214332 0 18 0
4.4275117 -9.5791883 -0.98501128 0 19 0
4.5886469 -9.9278135 -0.76459682 0 20 0
0.45682347 -0.9523344 -0.62639689 0 0 0
0.48526275 -1.0116215 -0.63056874 0 1 0
0.51382327 -1.0711613 -0.63176 0 2 0
0.53723907 -1.1199759 -0.62391055 0 3 0
0.5740732 -1.1967635 -0.62844008 0 4 0
0.61234462 -1.2765476 -0.63042873 0 5 0
0.65167183 -1.3585325 -0.62931854 0 6 0
0.69681484 -1.4526416 -0.62928921 0 7 0
0.74130076 -1.5453809 -0.62389165 0 8 0
0.79446048 -1.6562023 -0.62061191 0 9 0
0.86628908 -1.8059425 -0.62517834 0 10 0
0.94573796 -1.9715687 -0.62705499 0 11 0
1.033512 -2.1545501 -0.62544906 0 12 0
1.144084 -2.3850584 -0.62696451 0 13 0
1.2766038 -2.6613207 -0.6274125 0 14 0
1.4335581 -2.9885216 -0.62430179 0 15 0
1.648057 -3.4356849 -0.62626326 0 16 0
1.9884447 -4.145287 -0.64611286 0 17 0
2.3418903 -4.8821111 -0.63283908 0 18 0
4.6125307 -9.6156874 -0.99545139 0 19 0
4.7523241 -9.9071131 -0.76816267 0 20 0
0.4686628 -0.94219339 -0.624075 0 0 0
0.49577418 -0.99669772 -0.62562561 0 1 0
0.52044517 -1.046296 -0.62142462 0 2 0
0.55320287 -1.1121516 -0.62389898 0 3 0
0.580091 -1.1662072 -0.61669135 0 4 0
0.61793011 -1.2422785 -0.61780947 0 5 0
0.6675151 -1.3419633 -0.62600493 0 6 0
0.71553272 -1.4384973 -0.62753433 0 7 0
0.7664355 -1.5408316 -0.62641972 0 8 0
0.82362008 -1.6557947 -0.62481266 0 9 0
0.8931272 -1.7955309 -0.62593544 0 10 0
0.97721553 -1.9645809 -0.62921673 0 11 0
1.0665212 -2.1441197 -0.6267885 0 12 0
1.171983 -2.3561389 -0.62370825 0 13 0
1.3143537 -2.642359 -0.62731314 0 14 0
1.4740232 -2.9633565 -0.62338847 0 15 0
1.7009869 -3.419641 -0.62771243 0 16 0
2.0689468 -4.1593828 -0.65285885 0 17 0
2.415684 -4.8564587 -0.63393098 0 18 0
4.7757993 -9.601203 -1.000926 0 19 0
4.8964725 -9.8438025 -0.76860923 0 20 0
0.48006025 -0.93143278 -0.62143523 0 0 0
0.50833935 -0.98630112 -0.62360299 0 1 0
0.54057693 -1.0488498 -0.6274727 0 2 0
0.56883711 -1.1036813 -0.62365097 0 3 0
0.60615921 -1.1760952 -0.62644398 0 4 0
0.63816899 -1.238202 -0.62026131 0 5 0
0.68831152 -1.3354905 -0.62751704 0 6 0
0.73923123 -1.4342872 -0.63024896 0 7 0
0.79269189 -1.5380137 -0.62982231 0 8 0
0.8397373 -1.6292931 -0.61928445 0 9 0
0.9155429 -1.7763742 -0.62376171 0 10 0
0.99744511 -1.9352844 -0.62434232 0 11 0
1.0941079 -2.1228335 -0.62507987 0 12 0
1.2111759 -2.3499739 -0.62660122 0 13 0
1.3494226 -2.6182058 -0.62610036 0 14 0
1.523543 -2.9560413 -0.62637293 0 15 0
1.7491815 -3.3938344 -0.62750691 0 16 0
2.1605492 -4.1919875 -0.66276258 0 17 0
2.5009511 -4.8524489 -0.63801497 0 18 0
4.9083662 -9.5234156 -1.0000385 0 19 0
5.0228348 -9.745513 -0.76646972 0 20 0
0.49429315 -0.92624962 -0.6226337 0 0 0
0.5249365 -0.98367178 -0.62662697 0 1 0
0.55193597 -1.0342658 -0.62341017 0 2 0
0.58596569 -1.0980337 -0.62513489 0 3 0
0.61704695 -1.1562765 -0.6205284 0 4 0
0.66112316 -1.2388701 -0.62527239 0 5 0
0.70627421 -1.3234782 -0.62655866 0 6 0
0.74795043 -1.4015747 -0.62051535 0 7 0
0.81479377 -1.5268316 -0.62995458 0 8 0
0.86811507 -1.6267498 -0.6229769 0 9 0
0.95013124 -1.7804388 -0.62989986 0 10 0
1.0308152 -1.9316316 -0.62785953 0 11 0
1.1245418 -2.1072645 -0.62517101 0 12 0
1.243834 -2.3308046 -0.62617296 0 13 0
1.3859099 -2.597039 -0.6257183 0 14 0
1.5690662 -2.940253 -0.62772208 0 15 0
1.7956316 -3.3648114 -0.62682855 0 16 0
2.2405522 -4.1985421 -0.66880083 0 17 0
2.574028 -4.8234382 -0.63897932 0 18 0
4.9680185 -9.3095064 -0.98494238 0 19 0
5.1615815 -9.6722212 -0.76643753 0 20 0
0.5100528 -0.92370534 -0.62576681 0 0 0
0.53396398 -0.96700853 -0.62081712 0 1 0
0.56543446 -1.0240015 -0.62203789 0 2 0
0.60598701 -1.0974422 -0.62967181 0 3 0
0.6378454 -1.1551377 -0.62475288 0 4 0
0.67765373 -1.2272305 -0.62422925 0 5 0
0.7257424 -1.3143191 -0.62707615 0 6 0
0.76526797 -1.3858999 -0.61836177 0 7 0
0.83092165 -1.5047987 -0.62570697 0 8 0
0.88875312 -1.6095314 -0.62119102 0 9 0
0.96566319 -1.7488155 -0.62353808 0 10 0
1.0518643 -1.9049256 -0.62400877 0 11 0
1.1565449 -2.0945024 -0.62623191 0 12 0
1.275952 -2.3107483 -0.62562716 0 13 0
1.4282979 -2.5866466 -0.62807578 0 14 0
1.6035148 -2.9039645 -0.62481076 0 15 0
1.8419594 -3.3357875 -0.6262691 0 16 0
2.3320012 -4.2232528 -0.67798465 0 17 0
2.6549501 -4.8081131 -0.64191765 0 18 0
5.016953 -9.0856991 -0.96876192 0 19 0
5.27946 -9.5610991 -0.76354188 0 20 0
0.51586401 -0.9034273 -0.61696839 0 0 0
0.55474949 -0.9715271 -0.62875134 0 1 0
0.5824908 -1.0201101 -0.62467474 0 2 0
0.62020987 -1.0861671 -0.62823176 0 3 0
0.65470141 -1.1465718 -0.62512428 0 4 0
0.69378883 -1.2150252 -0.62300831 0 5 0
0.74280679 -1.3008698 -0.62566799 0 6 0
0.78862959 -1.3811189 -0.62120146 0 7 0
0.84946698 -1.4876628 -0.6235736 0 8 0
0.91904324 -1.6095109 -0.62619597 0 9 0
0.99815542 -1.7480593 -0.6282981 0 10 0
1.0821683 -1.8951902 -0.62582964 0 11 0
1.1801358 -2.0667598 -0.62292379 0 12 0
1.3119092 -2.297533 -0.627069 0 13 0
1.453814 -2.5460496 -0.62320709 0 14 0
1.6483568 -2.8867502 -0.6261192 0 15 0
1.8802737 -3.2929039 -0.62320691 0 16 0
2.3999999 -4.203095 -0.68019372 0 17 0
2.7421117 -4.8022318 -0.64630628 0 18 0
5.0977302 -8.9276028 -0.95958656 0 19 0
5.3745079 -9.4123201 -0.75772631 0 20 0
0.53838086 -0.91228646 -0.6282168 0 0 0
0.57620561 -0.97638053 -0.63716471 0 1 0
0.59456998 -1.0074989 -0.62209982 0 2 0
0.6365459 -1.0786271 -0.62907612 0 3 0
0.67533928 -1.1443626 -0.6291256 0 4 0
0.70865911 -1.2008229 -0.62086356 0 5 0
0.76091188 -1.2893653 -0.62530899 0 6 0
0.81474745 -1.3805897 -0.62614459 0 7 0
0.8781873 -1.4880885 -0.62895644 0 8 0
0.9383955 -1.5901113 -0.62381017 0 9 0
1.0134813 -1.717344 -0.62240851 0 10 0
1.1082582 -1.8779438 -0.62530875 0 11 0
1.2197498 -2.0668664 -0.62815368 0 12 0
1.3386856 -2.2684031 -0.62428427 0 13 0
1.5019127 -2.5449913 -0.62814575 0 14 0
1.6927093 -2.8682961 -0.62730742 0 15 0
1.9355539 -3.2797964 -0.62590539 0 16 0
2.4684763 -4.1828332 -0.68256271 0 17 0
2.8119028 -4.76477 -0.64661497 0 18 0
5.1711297 -8.7624798 -0.94969678 0 19 0
5.4281616 -9.1980209 -0.74665272 0 20 0
0.55001909 -0.90225136 -0.62666351 0 0 0
0.57632858 -0.94540948 -0.62227321 0 1 0
0.61626929 -1.0109283 -0.62959951 0 2 0
0.65176469 -1.0691549 -0.62892812 0 3 0
0.69377136 -1.1380627 -0.63105685 0 4 0
0.73234159 -1.2013333 -0.6264829 0 5 0
0.78233713 -1.2833459 -0.62775618 0 6 0
0.83198839 -1.3647939 -0.62431771 0 7 0
0.8935625 -1.4658 -0.62487781 0 8 0
0.96047831 -1.5755688 -0.62343448 0 9 0
1.045359 -1.714807 -0.62684768 0 10 0
1.1374631 -1.8658946 -0.62665367 0 11 0
1.2473892 -2.0462174 -0.62724024 0 12 0
1.3729779 -2.252233 -0.62517852 0 13 0
1.525158 -2.5018694 -0.62282687 0 14 0
1.7298315 -2.8376157 -0.62594843 0 15 0
1.9766787 -3.2425442 -0.62413174 0 16 0
2.5503175 -4.1835413 -0.68856448 0 17 0
2.8954051 -4.7496233 -0.65011704 0 18 0
5.3304644 -8.7440948 -0.95587546 0 19 0
5.5314622 -9.0738115 -0.74292094 0 20 0
0.55538082 -0.88237929 -0.61831921 0 0 0
0.58934861 -0.93634665 -0.62179673 0 1 0
0.62580305 -0.99426484 -0.62473625 0 2 0
0.66597378 -1.0580873 -0.6279608 0 3 0
0.71063113 -1.1290382 -0.63162822 0 4 0
0.75431669 -1.1984451 -0.63054264 0 5 0
0.79813528 -1.2680633 -0.6258046 0 6 0
0.85313183 -1.3554409 -0.62556106 0 7 0
0.92137325 -1.4638616 -0.62960905 0 8 0
0.98270977 -1.561312 -0.62329519 0 9 0
1.0662452 -1.6940315 -0.62476808 0 10 0
1.1650285 -1.8509767 -0.62717974 0 11 0
1.2708597 -2.0191195 -0.62444574 0 12 0
1.4161625 -2.249974 -0.63011354 0 13 0
1.5776023 -2.5064666 -0.62952828 0 14 0
1.7774032 -2.8239069 -0.62847203 0 15 0
2.0352571 -3.2335808 -0.62794942 0 16 0
2.6244011 -4.1696024 -0.69238204 0 17 0
2.9619405 -4.7058787 -0.64986587 0 18 0
3.5755007 -5.6806927 -0.62652493 0 19 0
5.6753507 -9.0168972 -0.74483579 0 20 0
0.57438391 -0.88424116 -0.62532097 0 0 0
0.60579312 -0.9325943 -0.62499899 0 1 0
0.6409148 -0.98666275 -0.6256597 0 2 0
0.68126082 -1.0487739 -0.62815624 0 3 0
0.71795738 -1.1052668 -0.62401462 0 4 0
0.76081294 -1.1712412 -0.62189561 0 5 0
0.81183881 -1.2497935 -0.62245917 0 6 0
0.87066007 -1.3403465 -0.6242823 0 7 0
0.9400934 -1.4472363 -0.62818164 0 8 0
1.0055656 -1.5480282 -0.62367415 0 9 0
1.0929222 -1.6825101 -0.62622422 0 10 0
1.1867949 -1.8270235 -0.62475538 0 11 0
1.2995014 -2.0005307 -0.62438536 0 12 0
1.4366997 -2.2117419 -0.62510151 0 13 0
1.6059468 -2.472291 -0.62665385 0 14 0
1.8136065 -2.7919748 -0.62707841 0 15 0
2.0814538 -3.2043152 -0.6279875 0 16 0
2.6989372 -4.1549063 -0.69628519 0 17 0
3.0428913 -4.6844096 -0.6528489 0 18 0
3.6535938 -5.6245618 -0.62603784 0 19 0
5.8054876 -8.9373169 -0.74504995 0 20 0
0.59529591 -0.88833898 -0.63417965 0 0 0
0.6225996 -0.92908335 -0.62855393 0 1 0
0.65647608 -0.97963601 -0.62709814 0 2 0
0.69529879 -1.0375698 -0.6273421 0 3 0
0.73602593 -1.0983454 -0.62599081 0 4 0
0.78190476 -1.1668088 -0.62542057 0 5 0
0.83212519 -1.241751 -0.62432176 0 6 0
0.90010893 -1.3432007 -0.63154775 0 7 0
0.95324242 -1.42249 -0.62329882 0 8 0
1.0375663 -1.5483235 -0.62971193 0 9 0
1.1155109 -1.6646374 -0.62545079 0 10 0
1.2181054 -1.8177356 -0.62747711 0 11 0
1.3315045 -1.986957 -0.62603307 0 12 0
1.4729656 -2.1980546 -0.62712759 0 13 0
1.6453364 -2.4552772 -0.62824631 0 14 0
1.8482684 -2.7581055 -0.62534916 0 15 0
2.1228251 -3.1678166 -0.62672514 0 16 0
2.7855399 -4.1567626 -0.70320582 0 17 0
3.1221716 -4.6591063 -0.65548348 0 18 0
3.7325678 -5.5699787 -0.6258449 0 19 0
5.9109049 -8.8206339 -0.7422998 0 20 0
7.5070853 -11.202558 -0.62780404 0 21 0
0.5991475 -0.86699224 -0.62499863 0 0 0
0.63144749 -0.91373169 -0.62421876 0 1 0
0.66711915 -0.96535015 -0.6240018 0 2 0
0.71096385 -1.0287952 -0.62812537 0 3 0
0.75776374 -1.0965167 -0.63106561 0 4 0
0.79552919 -1.151165 -0.62307495 0 5 0
0.84985709 -1.2297798 -0.62435496 0 6 0
0.91028988 -1.3172287 -0.62539828 0 7 0
0.98181587 -1.4207299 -0.62862092 0 8 0
1.0505431 -1.5201811 -0.62431788 0 9 0
1.1418724 -1.6523385 -0.62690645 0 10 0
1.2306675 -1.7808288 -0.62075412 0 11 0
1.3552886 -1.961161 -0.62395358 0 12 0
1.498297 -2.1681001 -0.62463605 0 13 0
1.6703998 -2.4171405 -0.62454188 0 14 0
1.885233 -2.7280135 -0.6245805 0 15 0
2.1746807 -3.1468565 -0.62867224 0 16 0
2.8732121 -4.1576619 -0.71024251 0 17 0
3.2027669 -4.6345415 -0.6584096 0 18 0
3.8179936 -5.5248013 -0.62684488 0 19 0
5.998951 -8.6807404 -0.73767757 0 20 0
7.6613021 -11.086234 -0.6273663 0 21 0
0.60875243 -0.85447949 -0.62219596 0 0 0
0.64722192 -0.90847743 -0.62689382 0 1 0
0.68206137 -0.95738006 -0.6250965 0 2 0
0.72265595 -1.0143609 -0.6255638 0 3 0
0.77045953 -1.0814607 -0.62868297 0 4 0
0.81673783 -1.1464196 -0.62676972 0 5 0
0.87322545 -1.2257088 -0.62856936 0 6 0
0.93599719 -1.3138188 -0.63007563 0 7 0
0.99073076 -1.390646 -0.62152076 0 8 0
1.077731 -1.5127643 -0.62754291 0 9 0
1.1559329 -1.6225331 -0.62181187 0 10 0
1.2687055 -1.7808272 -0.62701929 0 11 0
1.3874253 -1.9474689 -0.62585151 0 12 0
1.541482 -2.1637115 -0.62966383 0 13 0
1.7060101 -2.3946526 -0.62497681 0 14 0
1.9212209 -2.6967347 -0.62365133 0 15 0
2.2325549 -3.1337409 -0.63237125 0 16 0
2.9638855 -4.1602778 -0.71786296 0 17 0
3.2757897 -4.5980844 -0.65982389 0 18 0
3.8930895 -5.4645615 -0.62626833 0 19 0
6.0513062 -8.4939575 -0.72909075 0 20 0
7.813539 -10.967527 -0.62691343 0 21 0
0.62004942 -0.84449458 -0.62132418 0 0 0
0.65994048 -0.89882547 -0.62668747 0 1 0
0.69729966 -0.94970787 -0.62653965 0 2 0
0.73876595 -1.0061841 -0.6269781 0 3 0
0.7841242 -1.0679611 -0.62729555 0 4 0
0.84058547 -1.1448601 -0.63243032 0 5 0
0.88695419 -1.2080134 -0.62594116 0 6 0
0.94018495 -1.2805127 -0.62049305 0 7 0
1.0161409 -1.3839631 -0.62497032 0 8 0
1.0975051 -1.4947795 -0.62653464 0 9 0
1.1782094 -1.6046971 -0.6213758 0 10 0
1.2933718 -1.7615459 -0.62668449 0 11 0
1.4049587 -1.9135251 -0.62134206 0 12 0
1.5595012 -2.1240087 -0.62454176 0 13 0
1.7511915 -2.385087 -0.62895769 0 14 0
1.9608959 -2.6707003 -0.62405747 0 15 0
2.2744193 -3.0977125 -0.63160563 0 16 0
3.0463259 -4.1490335 -0.72337252 0 17 0
3.3714747 -4.5918798 -0.6657902 0 18 0
3.9751203 -5.4140325 -0.62693399 0 19 0
6.1006427 -8.3089504 -0.7206319 0 20 0
0.63616586 -0.84094518 -0.62534809 0 0 0
0.67295676 -0.889579 -0.62689233 0 1 0
0.7075783 -0.93534511 -0.62368196 0 2 0
0.75899589 -1.0033138 -0.63189435 0 3 0
0.79467744 -1.0504811 -0.62364548 0 4 0
0.85252744 -1.1269528 -0.62921453 0 5 0
0.90020919 -1.1899831 -0.62321126 0 6 0
0.96599388 -1.2769437 -0.62539953 0 7 0
1.0324931 -1.3648487 -0.62294853 0 8 0
1.1230623 -1.4845718 -0.6289295 0 9 0
1.2136182 -1.6042773 -0.62787539 0 10 0
1.3175939 -1.7417225 -0.62627733 0 11 0
1.4481518 -1.9143065 -0.62826204 0 12 0
1.6008879 -2.1162076 -0.62892127 0 13 0
1.7758673 -2.3475122 -0.62568802 0 14 0
2.006748 -2.6527123 -0.62650192 0 15 0
2.3159482 -3.0614433 -0.63090485 0 16 0
3.1456916 -4.158278 -0.7327593 0 17 0
3.4777093 -4.5971704 -0.67370582 0 18 0
4.0523496 -5.3567858 -0.62695736 0 19 0
6.1243157 -8.0957098 -0.70966768 0 20 0
0.64967191 -0.83372492 -0.62682974 0 0 0
0.6790027 -0.87136525 -0.62084234 0 1 0
0.71960366 -0.92346847 -0.62256694 0 2 0
0.75647396 -0.97078413 -0.61816299 0 3 0
0.80752528 -1.0362984 -0.62202382 0 4 0
0.87089354 -1.117619 -0.63089842 0 5 0
0.91512907 -1.1743865 -0.62183934 0 6 0
0.97980195 -1.2573813 -0.62262344 0 7 0
1.0613458 -1.3620267 -0.62852985 0 8 0
1.1411746 -1.464471 -0.62726951 0 9 0
1.2321262 -1.5811895 -0.62567765 0 10 0
1.3381857 -1.7172956 -0.62431747 0 11 0
1.4721481 -1.8892099 -0.62687683 0 12 0
1.6286093 -2.0899968 -0.62799513 0 13 0
1.8114309 -2.3246119 -0.62643081 0 14 0
2.0394192 -2.6171896 -0.62494254 0 15 0
2.3795426 -3.0536706 -0.63625687 0 16 0
3.2234778 -4.136694 -0.73701084 0 17 0
3.5736778 -4.5861058 -0.67951089 0 18 0
4.1200161 -5.2872229 -0.62565368 0 19 0
6.1399822 -7.8794489 -0.69834268 0 20 0
0.65852714 -0.82059008 -0.62397718 0 0 0
0.7008459 -0.87332344 -0.62932044 0 1 0
0.72669619 -0.90553552 -0.61742628 0 2 0
0.77901316 -0.97072756 -0.62516314 0 3 0
0.82813084 -1.0319331 -0.62645429 0 4 0
0.87386352 -1.0889206 -0.62169522 0 5 0
0.93633908 -1.1667713 -0.6248396 0 6 0
1.0083637 -1.2565211 -0.62928003 0 7 0
1.0805286 -1.3464458 -0.62841254 0 8 0
1.1628735 -1.4490557 -0.6277318 0 9 0
1.2525666 -1.5608221 -0.62464857 0 10 0
1.3662252 -1.7024519 -0.62596625 0 11 0
1.5050503 -1.8754419 -0.62939209 0 12 0
1.6521971 -2.0588014 -0.6256634 0 13 0
1.8416662 -2.2948987 -0.62546325 0 14 0
2.0767694 -2.5878603 -0.62497324 0 15 0
2.4189632 -3.0142679 -0.63519603 0 16 0
3.3005233 -4.1127791 -0.74109095 0 17 0
3.6579592 -4.5581799 -0.68306094 0 18 0
4.2017841 -5.2358394 -0.6266259 0 19 0
6.2116566 -7.7403393 -0.69382256 0 20 0
0.6704641 -0.811396 -0.62421936 0 0 0
0.71503919 -0.86534083 -0.63087869 0 1 0
0.74545395 -0.90214872 -0.62232852 0 2 0
0.80147272 -0.96994269 -0.63198096 0 3 0
0.84656608 -1.0245147 -0.62924242 0 4 0
0.88861287 -1.0753998 -0.62117386 0 5 0
0.95102262 -1.1509281 -0.62358111 0 6 0
1.0160375 -1.229609 -0.6230216 0 7 0
1.0940263 -1.3239912 -0.62517697 0 8 0
1.1775267 -1.4250435 -0.62456709 0 9 0
1.2797065 -1.5487014 -0.62706417 0 10 0
1.3975931 -1.691368 -0.62918174 0 11 0
1.5234128 -1.843635 -0.62597144 0 12 0
1.6719117 -2.0233483 -0.62209815 0 13 0
1.8768873 -2.27141 -0.62631923 0 14 0
2.1136794 -2.557976 -0.62499845 0 15 0
2.4917815 -3.0155554 -0.64291739 0 16 0
3.351608 -4.0561175 -0.73944962 0 17 0
3.74492 -4.532104 -0.68711555 0 18 0
4.2756658 -5.1744127 -0.62653458 0 19 0
6.294827 -7.6180029 -0.6908623 0 20 0
0.68101943 -0.80055499 -0.62331444 0 0 0
0.72142249 -0.84804976 -0.62573677 0 1 0
0.7697103 -0.90481323 -0.63170183 0 2 0
0.81173706 -0.95421672 -0.62924039 0 3 0
0.85543764 -1.0055878 -0.62507403 0 4 0
0.91184515 -1.0718962 -0.62662488 0 5 0
0.97279692 -1.1435466 -0.62706167 0 6 0
1.0351323 -1.2168232 -0.62398654 0 7 0
1.1082286 -1.3027498 -0.62257332 0 8 0
1.2058115 -1.4174609 -0.62874383 0 9 0
1.300735 -1.5290458 -0.62657982 0 10 0
1.4163938 -1.6650056 -0.62685245 0 11 0
1.5425448 -1.8132992 -0.62310427 0 12 0
1.7138369 -2.0146573 -0.62690401 0 13 0
1.9077777 -2.2426393 -0.62585151 0 14 0
2.1507103 -2.5282125 -0.62518382 0 15 0
2.529357 -2.9733207 -0.64156592 0 16 0
3.4127097 -4.0117235 -0.74018574 0 17 0
3.8229623 -4.4939857 -0.6895619 0 18 0
4.351491 -5.115284 -0.62685251 0 19 0
6.3661318 -7.4835434 -0.68686169 0 20 0
0.6961627 -0.79501498 -0.62669516 0 0 0
0.72962695 -0.83323109 -0.62244475 0 1 0
0.77131802 -0.88084203 -0.62261021 0 2 0
0.81959987 -0.93597972 -0.62488633 0 3 0
0.87229526 -0.99615765 -0.62690902 0 4 0
0.91904253 -1.0495428 -0.62118375 0 5 0
0.98632234 -1.1263762 -0.62532359 0 6 0
1.0718528 -1.2240515 -0.63549542 0 7 0
1.1330564 -1.2939459 -0.62605238 0 8 0
1.2164583 -1.3891906 -0.62386334 0 9 0
1.3282845 -1.5168955 -0.62932736 0 10 0
1.4411892 -1.6458322 -0.62733597 0 11 0
1.5799326 -1.8042766 -0.62771046 0 12 0
1.7372506 -1.9839332 -0.62501717 0 13 0
1.9394407 -2.2148335 -0.62577462 0 14 0
2.1872442 -2.497824 -0.62534684 0 15 0
2.5649893 -2.9292076 -0.63990378 0 16 0
3.4712148 -3.9641132 -0.74049264 0 17 0
3.9009776 -4.4549007 -0.69206136 0 18 0
4.4154291 -5.0424023 -0.62560201 0 19 0
6.4280701 -7.3408298 -0.68213785 0 20 0
0.70641959 -0.78380501 -0.62576503 0 0 0
0.75227648 -0.83468533 -0.63151014 0 1 0
0.79567039 -0.88283288 -0.63200265 0 2 0
0.83770889 -0.9294765 -0.62848538 0 3 0
0.88992518 -0.98741293 -0.62935758 0 4 0
0.93621713 -1.0387759 -0.6226787 0 5 0
1.0026939 -1.1125349 -0.62554312 0 6 0
1.0793703 -1.197611 -0.62972468 0 7 0
1.1526989 -1.2789723 -0.62672627 0 8 0
1.24271 -1.3788439 -0.6271407 0 9 0
1.3414878 -1.4884424 -0.62542492 0 10 0
1.4637496 -1.6240976 -0.62697321 0 11 0
1.6020967 -1.7775999 -0.62634337 0 12 0
1.7686679 -1.9624183 -0.62615043 0 13 0
1.9737985 -2.1900201 -0.62668198 0 14 0
2.2218127 -2.4652033 -0.62507778 0 15 0
2.6168997 -2.9035707 -0.64242011 0 16 0
3.5092719 -3.8936985 -0.73664671 0 17 0
3.9667933 -4.4013395 -0.69249022 0 18 0
4.4944096 -4.9867539 -0.62661499 0 19 0
6.4808736 -7.1908269 -0.67674965 0 20 0
0.72519433 -0.78183967 -0.63241827 0 0 0
0.74692434 -0.80526698 -0.61727816 0 1 0
0.80807376 -0.87119281 -0.63188517 0 2 0
0.85146022 -0.91796827 -0.6288802 0 3 0
0.89751059 -0.9676156 -0.62486327 0 4 0
0.96291852 -1.0381327 -0.6304903 0 5 0
1.0198505 -1.0995115 -0.62636411 0 6 0
1.1001817 -1.1861174 -0.63189667 0 7 0
1.165646 -1.2566952 -0.62392181 0 8 0
1.2589079 -1.357242 -0.62544709 0 9 0
1.3710563 -1.4781502 -0.62928182 0 10 0
1.4818064 -1.5975511 -0.62484896 0 11 0
1.6214321 -1.7480831 -0.62405664 0 12 0
1.7942265 -1.9343745 -0.62533265 0 13 0
2.0052857 -2.1619198 -0.62679011 0 14 0
2.2569983 -2.4332936 -0.62511414 0 15 0
2.6457326 -2.8523922 -0.63941002 0 16 0
3.5498407 -3.8271205 -0.73358858 0 17 0
4.0241909 -4.3385229 -0.69159865 0 18 0
4.5705032 -4.9275074 -0.62732649 0 19 0
6.5015407 -7.0093799 -0.6683628 0 20 0
0.71638316 -0.75050491 -0.61530334 0 0 0
0.76988047 -0.80655032 -0.62664485 0 1 0
0.8080076 -0.84649348 -0.6222952 0 2 0
0.85917217 -0.90009505 -0.62499648 0 3 0
0.91702223 -0.96070051 -0.62880951 0 4 0
0.97623485 -1.0227334 -0.62955987 0 5 0
1.0309093 -1.0800121 -0.62359792 0 6 0
1.1039658 -1.1565483 -0.62449813 0 7 0
1.1872281 -1.2437764 -0.62588066 0 8 0
1.2785712 -1.3394704 -0.62562686 0 9 0
1.3873172 -1.4533958 -0.62713277 0 10 0
1.5073615 -1.5791581 -0.62602967 0 11 0
1.6473967 -1.7258631 -0.62447816 0 12 0
1.8303024 -1.9174807 -0.62827611 0 13 0
2.0286272 -2.125252 -0.62451369 0 14 0
2.2915835 -2.400733 -0.62511176 0 15 0
2.6743786 -2.8017609 -0.636576 0 16 0
3.5837438 -3.7544396 -0.7294147 0 17 0
4.0658789 -4.2595391 -0.68821454 0 18 0
4.636764 -4.8576159 -0.62681371 0 19 0
6.4954557 -6.8048382 -0.65765703 0 20 0
0.73978454 -0.75313854 -0.62607968 0 0 0
0.77762002 -0.79165697 -0.62365741 0 1 0
0.82301873 -0.83787525 -0.62455583 0 2 0
0.87205464 -0.88779628 -0.62505978 0 3 0
0.92334265 -0.94001013 -0.62385356 0 4 0
0.98426318 -1.0020304 -0.62542391 0 5 0
1.0460707 -1.0649536 -0.62348461 0 6 0
1.1287668 -1.1491424 -0.62915879 0 7 0
1.2116916 -1.2335641 -0.62940466 0 8 0
1.3027371 -1.3262532 -0.62809849 0 9 0
1.3998151 -1.4250834 -0.62349778 0 10 0
1.5273986 -1.55497 -0.62504369 0 11 0
1.6812207 -1.7115687 -0.62794888 0 12 0
1.8528457 -1.8862919 -0.62668234 0 13 0
2.0577419 -2.0948868 -0.62418181 0 14 0
2.3158782 -2.3576825 -0.6224696 0 15 0
2.6968448 -2.7455261 -0.63250476 0 16 0
3.6059031 -3.670994 -0.72315615 0 17 0
4.1261449 -4.2006264 -0.68816775 0 18 0
4.711545 -4.7965941 -0.62757742 0 19 0
6.4108086 -6.5265312 -0.63956267 0 20 0
0.75087267 -0.74285448 -0.62640083 0 0 0
0.79887825 -0.79034746 -0.63156915 0 1 0
0.83471847 -0.82580495 -0.62440044 0 2 0
0.88449281 -0.8750478 -0.6249336 0 3 0
0.93658602 -0.92658472 -0.62377667 0 4 0
0.99191916 -0.981327 -0.62129974 0 5 0
1.0643291 -1.0529637 -0.62532002 0 6 0
1.1396743 -1.1275043 -0.62617898 0 7 0
1.2307981 -1.2176551 -0.63021153 0 8 0
1.3129835 -1.2989628 -0.6240105 0 9 0
1.4315064 -1.4162202 -0.62852019 0 10 0
1.548309 -1.5317755 -0.62456447 0 11 0
1.6963609 -1.6782464 -0.62456769 0 12 0
1.8750343 -1.8550119 -0.62514263 0 13 0
2.0896375 -2.0673234 -0.62481695 0 14 0
2.3628416 -2.3376102 -0.62603521 0 15 0
2.7568698 -2.7274308 -0.63736147 0 16 0
3.6483614 -3.6094027 -0.72123629 0 17 0
4.1824737 -4.1378117 -0.68761414 0 18 0
4.7625661 -4.711709 -0.62532622 0 19 0
6.3998785 -6.3315377 -0.62936664 0 20 0
0.7522192 -0.72317916 -0.6188255 0 0 0
0.80018646 -0.76929456 -0.62383431 0 1 0
0.85518366 -0.82216859 -0.63084161 0 2 0
0.89366865 -0.85916781 -0.62266409 0 3 0
0.95896286 -0.92194128 -0.62982655 0 4 0
1.0150429 -0.9758563 -0.62697041 0 5 0
1.0849431 -1.0430579 -0.62859523 0 6 0
1.1547743 -1.1101933 -0.62568045 0 7 0
1.234645 -1.1869804 -0.62341803 0 8 0
1.333293 -1.2818201 -0.62487906 0 9 0
1.4465183 -1.3906742 -0.62630749 0 10 0
1.5812066 -1.5201627 -0.62899327 0 11 0
1.726065 -1.6594288 -0.62669492 0 12 0
1.9048704 -1.8313313 -0.62628651 0 13 0
2.1263309 -2.0442421 -0.62697536 0 14 0
2.3959045 -2.3034086 -0.62599576 0 15 0
2.7922804 -2.6844819 -0.63659948 0 16 0
3.6781998 -3.5361998 -0.7170555 0 17 0
4.2579379 -4.0935564 -0.69031709 0 18 0
4.8460975 -4.6590099 -0.62747371 0 19 0
6.4664302 -6.2167878 -0.62709641 0 20 0
0.77145964 -0.72071683 -0.62610322 0 0 0
0.81712323 -0.76337689 -0.62845558 0 1 0
0.84703022 -0.79131675 -0.61640877 0 2 0
0.90677238 -0.84712934 -0.62328196 0 3 0
0.96748585 -0.90384942 -0.62686318 0 4 0
1.0297548 -0.96202254 -0.62748796 0 5 0
1.0969003 -1.0247517 -0.62696064 0 6 0
1.1696473 -1.0927137 -0.62520057 0 7 0
1.2481126 -1.1660179 -0.62172735 0 8 0
1.3525746 -1.2636089 -0.62537509 0 9 0
1.4581206 -1.3622125 -0.62282503 0 10 0
1.5976497 -1.4925642 -0.62697166 0 11 0
1.7518321 -1.6366053 -0.6274808 0 12 0
1.927097 -1.8003421 -0.62505776 0 13 0
2.1549096 -2.0131702 -0.62684131 0 14 0
2.4356933 -2.2754853 -0.62781751 0 15 0
2.8196108 -2.6341507 -0.63416958 0 16 0
3.7027388 -3.4591908 -0.71211392 0 17 0
4.3006825 -4.0178051 -0.68785304 0 18 0
4.8967152 -4.5746336 -0.62548542 0 19 0
6.5509257 -6.1200385 -0.62673128 0 20 0
0.78393984 -0.71163923 -0.62790084 0 0 0
0.82357842 -0.74762201 -0.625126 0 1 0
0.8829751 -0.80154073 -0.63415283 0 2 0
0.92516458 -0.83983922 -0.62759703 0 3 0
0.97564089 -0.88566023 -0.62386948 0 4 0
1.0447118 -0.94836092 -0.62826622 0 5 0
1.1161865 -1.0132437 -0.62963003 0 6 0
1.1866729 -1.0772293 -0.62599522 0 7 0
1.2697418 -1.152637 -0.62421936 0 8 0
1.3791411 -1.2519467 -0.62930852 0 9 0
1.4869963 -1.3498547 -0.62684202 0 10 0
1.6102643 -1.4617541 -0.62364739 0 11 0
1.7770723 -1.6131778 -0.62818658 0 12 0
1.9624994 -1.7815034 -0.62820542 0 13 0
2.1839855 -1.9825624 -0.6269803 0 14 0
2.469394 -2.2416484 -0.62816942 0 15 0
2.8419394 -2.5798352 -0.6308217 0 16 0
3.7375941 -3.3928859 -0.70940477 0 17 0
4.3452091 -3.9444625 -0.68587434 0 18 0
4.9690037 -4.510726 -0.62640792 0 19 0
6.6323838 -6.0206971 -0.6262157 0 20 0
0.78899038 -0.69588882 -0.62390423 0 0 0
0.83167243 -0.73353434 -0.62323636 0 1 0
0.8801381 -0.77628106 -0.62407124 0 2 0
0.94355464 -0.83221442 -0.63192683 0 3 0
0.99425197 -0.8769294 -0.62767965 0 4 0
1.0566161 -0.93193448 -0.62733901 0 5 0
1.1192445 -0.98717266 -0.6233207 0 6 0
1.1997181 -1.0581503 -0.62482315 0 7 0
1.2852645 -1.1336021 -0.62380981 0 8 0
1.3873858 -1.2236731 -0.62501442 0 9 0
1.5129761 -1.3344436 -0.62967747 0 10 0
1.6292714 -1.437016 -0.62297875 0 11 0
1.7904286 -1.5791565 -0.62485385 0 12 0
1.980303 -1.7466255 -0.62583768 0 13 0
2.1996715 -1.9401084 -0.62344748 0 14 0
2.4993699 -2.204442 -0.62770391 0 15 0
2.8818531 -2.5417919 -0.63154095 0 16 0
3.7618115 -3.3179145 -0.70491529 0 17 0
4.4023328 -3.8828537 -0.68604815 0 18 0
5.0337195 -4.4397364 -0.62649095 0 19 0
6.7231741 -5.9298339 -0.62670988 0 20 0
0.81314015 -0.69675392 -0.63504964 0 0 0
0.85561097 -0.73314583 -0.63324666 0 1 0
0.89011139 -0.76270813 -0.62333822 0 2 0
0.95351553 -0.81703711 -0.63070107 0 3 0
0.99877429 -0.85581791 -0.62273753 0 4 0
1.0778171 -0.92354715 -0.63201326 0 5 0
1.1513263 -0.98653489 -0.63325858 0 6 0
1.2179241 -1.0436004 -0.62646121 0 7 0
1.3013165 -1.1150568 -0.62379044 0 8 0
1.4096226 -1.2078607 -0.62717932 0 9 0
1.5186201 -1.3012573 -0.62421083 0 10 0
1.6656998 -1.4272852 -0.62903184 0 11 0
1.8215541 -1.5608317 -0.6278553 0 12 0
2.0010684 -1.7146517 -0.62457991 0 13 0
2.227149 -1.908373 -0.62342954 0 14 0
2.5289767 -2.1669996 -0.62728542 0 15 0
2.8974407 -2.4827247 -0.62710506 0 16 0
3.7888155 -3.2465155 -0.70119596 0 17 0
4.4377618 -3.802577 -0.68301743 0 18 0
5.0838079 -4.356153 -0.6249007 0 19 0
6.8045006 -5.8305602 -0.62644726 0 20 0
0.81679022 -0.67985225 -0.63023597 0 0 0
0.86168402 -0.71721941 -0.63007897 0 1 0
0.91491306 -0.76152438 -0.6330086 0 2 0
0.95864654 -0.79792577 -0.62647635 0 3 0
1.0254586 -0.85353661 -0.63169318 0 4 0
1.072879 -0.89300668 -0.62155879 0 5 0
1.1531843 -0.95984858 -0.62665963 0 6 0
1.2312831 -1.0248537 -0.62572312 0 7 0
1.3148135 -1.09438 -0.6226877 0 8 0
1.4266964 -1.1875054 -0.62714916 0 9 0
1.5360643 -1.2785373 -0.62379503 0 10 0
1.6808653 -1.3990618 -0.6271323 0 11 0
1.8434397 -1.5343801 -0.62776458 0 12 0
2.0300317 -1.689689 -0.62600714 0 13 0
2.2686734 -1.8883216 -0.62742299 0 14 0
2.5679722 -2.1374419 -0.62930477 0 15 0
2.9260645 -2.4354985 -0.62569118 0 16 0
3.7825537 -3.1483941 -0.69162613 0 17 0
4.4751134 -3.7248437 -0.68049073 0 18 0
5.1555567 -4.2912078 -0.6261059 0 19 0
6.8807721 -5.7271843 -0.62585795 0 20 0
0.82316786 -0.66545027 -0.62774324 0 0 0
0.85834092 -0.69388419 -0.62030846 0 1 0
0.91617382 -0.74063641 -0.62648213 0 2 0
0.9823491 -0.79413259 -0.63447279 0 3 0
1.0265893 -0.82989645 -0.62500823 0 4 0
1.097492 -0.8872143 -0.62839663 0 5 0
1.1665499 -0.94304085 -0.62652344 0 6 0
1.2458115 -1.0071161 -0.62571657 0 7 0
1.3357449 -1.0798184 -0.62521678 0 8 0
1.4439074 -1.1672571 -0.62730616 0 9 0
1.5634925 -1.2639298 -0.62752253 0 10 0
1.6908523 -1.3668877 -0.62349486 0 11 0
1.8621199 -1.5053407 -0.62672424 0 12 0
2.0584655 -1.6640669 -0.62736619 0 13 0
2.2989593 -1.8584824 -0.62837762 0 14 0
2.578923 -2.0848055 -0.62461168 0 15 0
2.9643435 -2.3963802 -0.62647778 0 16 0
3.7810926 -3.0566416 -0.68328929 0 17 0
4.5201163 -3.6540694 -0.67931122 0 18 0
5.2153888 -4.2161288 -0.62597924 0 19 0
6.9733272 -5.637249 -0.62687308 0 20 0
0.83819783 -0.65798938 -0.63195807 0 0 0
0.88363636 -0.69365883 -0.63134915 0 1 0
0.92896587 -0.72924274 -0.6280275 0 2 0
0.97689009 -0.76686347 -0.62379366 0 3 0
1.0478083 -0.82253462 -0.63069439 0 4 0
1.0987904 -0.86255586 -0.62200731 0 5 0
1.1723137 -0.92027199 -0.62248075 0 6 0
1.2603714 -0.98939776 -0.62585247 0 7 0
1.3468333 -1.0572708 -0.62325978 0 8 0
1.4659748 -1.1507974 -0.62967271 0 9 0
1.57542 -1.2367125 -0.62514102 0 10 0
1.718088 -1.3487076 -0.62635529 0 11 0
1.8787709 -1.4748443 -0.62515944 0 12 0
2.079082 -1.6320895 -0.62646556 0 13 0
2.3165507 -1.8185036 -0.62600726 0 14 0
2.6151698 -2.0529211 -0.62620962 0 15 0
2.99773 -2.3532326 -0.62635094 0 16 0
3.7749372 -2.9633439 -0.67444277 0 17 0
4.5478768 -3.5701053 -0.67573428 0 18 0
5.280479 -4.1452017 -0.62660611 0 19 0
7.0471554 -5.5320511 -0.62632757 0 20 0
0.84017867 -0.64032376 -0.62647724 0 0 0
0.88345724 -0.67330754 -0.62427139 0 1 0
0.93042946 -0.70910639 -0.62209147 0 2 0
0.9879443 -0.75294006 -0.62390667 0 3 0
1.0556146 -0.80451351 -0.62839746 0 4 0
1.129825 -0.86107129 -0.63253373 0 5 0
1.191063 -0.90774256 -0.62547326 0 6 0
1.2676127 -0.96608317 -0.62251794 0 7 0
1.3728005 -1.0462497 -0.62828189 0 8 0
1.4749956 -1.1241355 -0.62657195 0 9 0
1.5966177 -1.216827 -0.62657702 0 10 0
1.7332915 -1.3209901 -0.62494075 0 11 0
1.8966595 -1.4454974 -0.62416327 0 12 0
2.106915 -1.605739 -0.62786239 0 13 0
2.3465483 -1.7883703 -0.627132 0 14 0
2.6482489 -2.0183048 -0.62714869 0 15 0
3.0275807 -2.307404 -0.62562323 0 16 0
3.7507334 -2.8585391 -0.66274047 0 17 0
4.5809798 -3.491293 -0.67315876 0 18 0
5.3463097 -4.0745726 -0.627433 0 19 0
7.1250491 -5.4301996 -0.6262784 0 20 0
0.85586619 -0.63312268 -0.63135272 0 0 0
0.88899565 -0.65763003 -0.62146991 0 1 0
0.93980134 -0.69521326 -0.62164062 0 2 0
0.99730605 -0.73775208 -0.62308627 0 3 0
1.0661104 -0.78864974 -0.62786138 0 4 0
1.1248535 -0.83210468 -0.62301862 0 5 0
1.2089854 -0.89434081 -0.62809831 0 6 0
1.282716 -0.94888264 -0.62320131 0 7 0
1.3862762 -1.0254909 -0.62766725 0 8 0
1.482163 -1.0964226 -0.6228863 0 9 0
1.6075786 -1.1891981 -0.62413466 0 10 0
1.7568448 -1.2996169 -0.62666172 0 11 0
1.911075 -1.4137081 -0.62218446 0 12 0
2.1196001 -1.5679634 -0.62489051 0 13 0
2.3669653 -1.7509506 -0.62582642 0 14 0
2.6688445 -1.9742641 -0.62526995 0 15 0
3.0709 -2.2716827 -0.6277914 0 16 0
3.7425225 -2.768512 -0.6542207 0 17 0
4.6105466 -3.4106283 -0.67026126 0 18 0
5.3944621 -3.9905262 -0.62631661 0 19 0
7.2156024 -5.3377051 -0.6274581 0 20 0
0.85424703 -0.6132049 -0.62361979 0 0 0
0.90747058 -0.6514104 -0.62780279 0 1 0
0.95574111 -0.68606049 -0.62562466 0 2 0
1.0116732 -0.72621024 -0.62550414 0 3 0
1.0646598 -0.76424563 -0.62050122 0 4 0
1.1503625 -0.82576573 -0.63053614 0 5 0
1.212422 -0.87031388 -0.623348 0 6 0
1.2961115 -0.93038875 -0.62317556 0 7 0
1.3975184 -1.0031818 -0.62619191 0 8 0
1.5090823 -1.0832659 -0.62761879 0 9 0
1.6329246 -1.1721636 -0.62739694 0 10 0
1.7712692 -1.2714716 -0.62525123 0 11 0
1.9422095 -1.3941779 -0.62575984 0 12 0
2.143306 -1.5385312 -0.62532306 0 13 0
2.3981268 -1.7214495 -0.62748653 0 14 0
2.6915269 -1.9320611 -0.62404114 0 15 0
3.101743 -2.2265267 -0.62751728 0 16 0
3.7305222 -2.6778839 -0.64535654 0 17 0
4.6251035 -3.3200419 -0.66540086 0 18 0
5.4584956 -3.9182765 -0.62717533 0 19 0
7.2744756 -5.2218428 -0.62601399 0 20 0
0.86567622 -0.60282445 -0.62560022 0 0 0
0.90389931 -0.62944162 -0.61903584 0 1 0
0.9679904 -0.67407227 -0.62726295 0 2 0
1.0194378 -0.70989823 -0.62395847 0 3 0
1.0726429 -0.74694836 -0.61885947 0 4 0
1.1552432 -0.80446804 -0.6268357 0 5 0
1.2168795 -0.84738922 -0.6193403 0 6 0
1.3280535 -0.92480659 -0.63210416 0 7 0
1.4082788 -0.98067254 -0.62465984 0 8 0
1.5228063 -1.0604253 -0.62694973 0 9 0
1.6446931 -1.1453027 -0.62555599 0 10 0
1.7755787 -1.2364465 -0.6204617 0 11 0
1.9621183 -1.3663455 -0.62580901 0 12 0
2.1653426 -1.5078634 -0.62539142 0 13 0
2.4211609 -1.6860057 -0.6271348 0 14 0
2.7152762 -1.8908167 -0.62320876 0 15 0
3.1242127 -2.1755846 -0.6256991 0 16 0
3.7419081 -2.6057243 -0.6408084 0 17 0
4.6386623 -3.2301905 -0.66063213 0 18 0
5.4996057 -3.8297193 -0.62553644 0 19 0
7.357059 -5.1231799 -0.62674606 0 20 0
0.87415928 -0.59033543 -0.62556028 0 0 0
0.9192642 -0.62079561 -0.62340921 0 1 0
0.9684853 -0.65403545 -0.6214537 0 2 0
1.0335023 -0.69794261 -0.62638819 0 3 0
1.0997362 -0.74267155 -0.6282934 0 4 0
1.1666741 -0.78787595 -0.6268549 0 5 0
1.2377594 -0.83588105 -0.62381405 0 6 0
1.3246248 -0.89454281 -0.62431407 0 7 0
1.4265586 -0.96338063 -0.62658751 0 8 0
1.5333319 -1.0354865 -0.62511706 0 9 0
1.6644571 -1.1240377 -0.62688965 0 10 0
1.8274844 -1.234133 -0.63236213 0 11 0
1.9777489 -1.3356092 -0.62463301 0 12 0
2.1830711 -1.474267 -0.62435317 0 13 0
2.4531512 -1.656657 -0.62921447 0 14 0
2.7505755 -1.857513 -0.62514424 0 15 0
3.1444802 -2.123524 -0.62360698 0 16 0
3.7294416 -2.5185587 -0.63243526 0 17 0
4.6446471 -3.1366136 -0.65502346 0 18 0
5.5630002 -3.7567935 -0.62656659 0 19 0
7.4260421 -5.0149393 -0.62644356 0 20 0
0.8877396 -0.581182 -0.62926108 0 0 0
0.94090581 -0.61598873 -0.63204169 0 1 0
0.98491514 -0.64480054 -0.62600994 0 2 0
1.0372013 -0.67903101 -0.62267554 0 3 0
1.1106318 -0.72710431 -0.62850797 0 4 0
1.1689484 -0.76528281 -0.62212759 0 5 0
1.2437657 -0.81426388 -0.62090361 0 6 0
1.340732 -0.87774539 -0.62592012 0 7 0
1.4421589 -0.94414723 -0.62743956 0 8 0
1.5438967 -1.0107524 -0.62346214 0 9 0
1.6800715 -1.099903 -0.62677681 0 10 0
1.8278658 -1.1966604 -0.62650305 0 11 0
2.013552 -1.3182247 -0.62991697 0 12 0
2.205044 -1.44359 -0.62466389 0 13 0
2.4590058 -1.6098528 -0.62474191 0 14 0
2.7721086 -1.8148338 -0.62407041 0 15 0
3.1821003 -2.0832455 -0.62509012 0 16 0
3.7605762 -2.4619601 -0.63167447 0 17 0
4.6540728 -3.0469112 -0.65013564 0 18 0
5.6080585 -3.671463 -0.62565857 0 19 0
7.4974928 -4.9084306 -0.6264801 0 20 0
0.90345985 -0.57317108 -0.63452381 0 0 0
0.94597805 -0.6001454 -0.62961406 0 1 0
0.99076593 -0.62855965 -0.62394643 0 2 0
1.0382078 -0.65865755 -0.61755675 0 3 0
1.1135751 -0.70647192 -0.62438715 0 4 0
1.1914626 -0.75588518 -0.62828737 0 5 0
1.2589896 -0.79872549 -0.62273252 0 6 0
1.3511111 -0.85716903 -0.62497377 0 7 0
1.4500122 -0.91991371 -0.62506366 0 8 0
1.5652517 -0.99302363 -0.62628192 0 9 0
1.6777432 -1.0643903 -0.620161 0 10 0
1.8357378 -1.1646249 -0.62342376 0 11 0
2.0145555 -1.27807 -0.62444401 0 12 0
2.2388864 -1.4203895 -0.62842721 0 13 0
2.4821527 -1.5747221 -0.62483215 0 14 0
2.7991095 -1.7758051 -0.62436283 0 15 0
3.2173743 -2.0411599 -0.62621599 0 16 0
3.7767751 -2.3960536 -0.62857032 0 17 0
4.6330414 -2.9392843 -0.64125502 0 18 0
5.6706243 -3.5975456 -0.62682968 0 19 0
7.5687323 -4.8017392 -0.62662566 0 20 0
0.89654523 -0.55094862 -0.62406504 0 0 0
0.94719058 -0.58207142 -0.62481189 0 1 0
1.0014312 -0.61540365 -0.62505168 0 2 0
1.0532295 -0.64723486 -0.62091786 0 3 0
1.1214684 -0.68916935 -0.62321812 0 4 0
1.1991931 -0.73693311 -0.62673748 0 5 0
1.2747232 -0.78334808 -0.62490481 0 6 0
1.3658807 -0.83936661 -0.62618423 0 7 0
1.4735361 -0.90552348 -0.62955248 0 8 0
1.5723375 -0.96623927 -0.62351948 0 9 0
1.715446 -1.0541829 -0.62845558 0 10 0
1.8591459 -1.1424899 -0.62575555 0 11 0
2.022157 -1.2426641 -0.62122327 0 12 0
2.2476914 -1.3812605 -0.62528527 0 13 0
2.5122907 -1.5438632 -0.62679189 0 14 0
2.8250859 -1.7360834 -0.62455028 0 15 0
3.2516229 -1.9982007 -0.62725091 0 16 0
3.790118 -2.329119 -0.62517852 0 17 0
4.6376505 -2.8499479 -0.63618171 0 18 0
5.716989 -3.5132277 -0.62633198 0 19 0
7.6349869 -4.6918836 -0.62648678 0 20 0
0.90810579 -0.54030228 -0.6266647 0 0 0
0.94673288 -0.56328452 -0.61912817 0 1 0
0.99713391 -0.59327197 -0.61700606 0 2 0
1.0646248 -0.6334275 -0.62222707 0 3 0
1.1439306 -0.68061262 -0.63022244 0 4 0
1.2003573 -0.7141853 -0.6219396 0 5 0
1.2814496 -0.76243329 -0.62278861 0 6 0
1.3856076 -0.82440501 -0.62975371 0 7 0
1.4752257 -0.87772572 -0.62484282 0 8 0
1.6080914 -0.95677775 -0.63220239 0 9 0
1.7133703 -1.0194163 -0.62228584 0 10 0
1.8731352 -1.1144727 -0.62503093 0 11 0
2.0546486 -1.2224691 -0.62576544 0 12 0
2.2737412 -1.3528243 -0.62708104 0 13 0
2.5459371 -1.5147746 -0.6297124 0 14 0
2.8613021 -1.7024096 -0.62710547 0 15 0
3.2745984 -1.9483114 -0.6262393 0 16 0
3.8325832 -2.2802999 -0.62673515 0 17 0
4.658464 -2.7716801 -0.63352984 0 18 0
5.756752 -3.4251366 -0.6252532 0 19 0
7.7021065 -4.5825782 -0.62654787 0 20 0
0.90180868 -0.51922578 -0.61712736 0 0 0
0.96717924 -0.55686361 -0.62722254 0 1 0
1.0142452 -0.58396232 -0.62235832 0 2 0
1.0777243 -0.62051111 -0.62462825 0 3 0
1.1493964 -0.66177702 -0.62795079 0 4 0
1.2166344 -0.70049 -0.6251142 0 5 0
1.3032895 -0.75038266 -0.62811863 0 6 0
1.3858603 -0.79792362 -0.62461376 0 7 0
1.4920063 -0.85903829 -0.62667817 0 8 0
1.6026235 -0.92272729 -0.62479639 0 9 0
1.732476 -0.99749124 -0.62397546 0 10 0
1.8942058 -1.0906088 -0.62678874 0 11 0
2.0615396 -1.1869531 -0.62262613 0 12 0
2.2852263 -1.3157431 -0.62499064 0 13 0
2.5615067 -1.4748144 -0.62827784 0 14 0
2.8832569 -1.6600655 -0.62664539 0 15 0
3.3064718 -1.9037358 -0.62705946 0 16 0
3.8695991 -2.2279623 -0.62750912 0 17 0
4.6559711 -2.6807241 -0.62790829 0 18 0
5.8182945 -3.3499444 -0.62666541 0 19 0
7.7568088 -4.466064 -0.62573355 0 20 0
0.92701882 -0.51621777 -0.62925839 0 0 0
0.9652921 -0.53753054 -0.62094557 0 1 0
1.0330526 -0.5752635 -0.62878197 0 2 0
1.0809096 -0.60191309 -0.6214174 0 3 0
1.1636302 -0.6479767 -0.63059551 0 4 0
1.2240812 -0.68163925 -0.62386346 0 5 0
1.3186897 -0.73432279 -0.63041049 0 6 0
1.3981049 -0.7785458 -0.6250459 0 7 0
1.5061946 -0.83873636 -0.62753081 0 8 0
1.6121862 -0.8977586 -0.62345093 0 9 0
1.7554759 -0.97755063 -0.62715548 0 10 0
1.8975807 -1.0566828 -0.62283695 0 11 0
2.1002576 -1.1695451 -0.62919939 0 12 0
2.3051579 -1.2836454 -0.62535268 0 13 0
2.5697041 -1.4309601 -0.62520069 0 14 0
2.9086115 -1.6196833 -0.62705302 0 15 0
3.3188357 -1.84812 -0.62432355 0 16 0
3.9030166 -2.1734257 -0.62781912 0 17 0
4.6805506 -2.6064017 -0.62612778 0 18 0
5.8582482 -3.2622118 -0.62587535 0 19 0
7.827426 -4.3587642 -0.62633318 0 20 0
0.917072 -0.49361792 -0.61764729 0 0 0
0.98785442 -0.53171682 -0.63049895 0 1 0
1.0374799 -0.55842799 -0.62654746 0 2 0
1.0848292 -0.58391392 -0.61880243 0 3 0
1.162801 -0.62588263 -0.62522727 0 4 0
1.2434356 -0.66928452 -0.62878084 0 5 0
1.3221266 -0.7116403 -0.62711984 0 6 0
1.4096031 -0.75872487 -0.62526721 0 7 0
1.5194161 -0.81783217 -0.62809789 0 8 0
1.6294968 -0.8770836 -0.62522626 0 9 0
1.7648654 -0.94994628 -0.62558824 0 10 0
1.9329576 -1.0404227 -0.6294961 0 11 0
2.0958731 -1.1281127 -0.62298465 0 12 0
2.3260775 -1.2520211 -0.62610203 0 13 0
2.6029654 -1.4010572 -0.6283496 0 14 0
2.9211433 -1.5723178 -0.62483889 0 15 0
3.3462725 -1.8011454 -0.62457114 0 16 0
3.9201899 -2.1100588 -0.62565929 0 17 0
4.7101974 -2.5352838 -0.62517518 0 18 0
5.9107499 -3.1814861 -0.62655514 0 19 0
7.8859529 -4.2446475 -0.62609071 0 20 0
0.92401797 -0.48042935 -0.61763078 0 0 0
0.99843097 -0.51911926 -0.63244218 0 1 0
1.0449077 -0.54328412 -0.62627286 0 2 0
1.1115466 -0.57793206 -0.62925941 0 3 0
1.1803769 -0.61371928 -0.62988979 0 4 0
1.2388239 -0.644108 -0.621723 0 5 0
1.3321292 -0.69262069 -0.62709773 0 6 0
1.4212689 -0.73896754 -0.62568599 0 7 0
1.5319319 -0.79650515 -0.6284945 0 8 0
1.6376909 -0.85149294 -0.62363005 0 9 0
1.7884678 -0.92988712 -0.62917221 0 10 0
1.9359499 -1.0065682 -0.62571448 0 11 0
2.1108599 -1.09751 -0.62270606 0 12 0
2.3547914 -1.2243387 -0.62904942 0 13 0
2.6183524 -1.3613732 -0.62729585 0 14 0
2.9480619 -1.5328008 -0.62583983 0 15 0
3.3715405 -1.7529821 -0.62454015 0 16 0
3.9522231 -2.0548995 -0.6260134 0 17 0
4.7622843 -2.4760787 -0.62732029 0 18 0
5.9337306 -3.0851548 -0.62424624 0 19 0
7.9331284 -4.1247115 -0.62508476 0 20 0
0.94615561 -0.47486275 -0.62782043 0 0 0
1.0037109 -0.50374895 -0.63115472 0 1 0
1.0512822 -0.52762437 -0.62550294 0 2 0
1.1028954 -0.55352831 -0.61981308 0 3 0
1.1715662 -0.58799332 -0.62063342 0 4 0
1.2551597 -0.62994778 -0.62533218 0 5 0
1.3475964 -0.67634052 -0.62975717 0 6 0
1.4274198 -0.71640277 -0.62381572 0 7 0
1.5337894 -0.76978821 -0.62467211 0 8 0
1.654256 -0.83024883 -0.62534869 0 9 0
1.8038281 -0.90531701 -0.62995267 0 10 0
1.9544569 -0.98091561 -0.62709397 0 11 0
2.139662 -1.0738674 -0.62660414 0 12 0
2.3583586 -1.1836284 -0.62541252 0 13 0
2.6342275 -1.3220834 -0.62650132 0 14 0
2.9839396 -1.4975991 -0.62884128 0 15 0
3.4089622 -1.7109122 -0.62687153 0 16 0
3.9913454 -2.0032024 -0.62760425 0 17 0
4.7845902 -2.4013214 -0.62566686 0 18 0
5.9211035 -2.9717221 -0.61837959 0 19 0
8.0066481 -4.0184288 -0.62628156 0 20 0
0.95048857 -0.4601272 -0.62626129 0 0 0
