# .PCD v0.7 - Point Cloud Data file format
VERSION 0.7
FIELDS x y z intensity ring time
SIZE 4 4 4 4 2 4
TYPE F F F F U F
COUNT 1 1 1 1 1 1
WIDTH 1202
HEIGHT 1
VIEWPOINT 0 0 0 1 0 0 0
POINTS 1202
DATA ascii
1.0023478 2.9001532 0.35880136 0 28 0
1.0551543 3.0529413 0.45413464 0 29 0
1.19048 3.4444871 0.5991776 0 30 0
1.272646 3.6822226 0.73403549 0 31 0
0.33002293 1.0010567 -0.62510443 0 0 0
0.35029957 1.0625616 -0.62878525 0 1 0
0.36914778 1.1197338 -0.62696874 0 2 0
0.38417986 1.1653305 -0.6163063 0 3 0
0.41381171 1.2552127 -0.62575835 0 4 0
0.4269847 1.2951702 -0.60723901 0 5 0
0.44183907 1.3402278 -0.58940381 0 6 0
0.45646799 1.3846017 -0.56944329 0 7 0
0.46746448 1.4179573 -0.54346377 0 8 0
0.47989711 1.4556692 -0.51784909 0 9 0
0.4958626 1.5040971 -0.49432176 0 10 0
0.50262362 1.5246054 -0.46034667 0 11 0
0.52313083 1.5868098 -0.43731463 0 12 0
0.53900528 1.6349616 -0.40802369 0 13 0
0.54955393 1.6669588 -0.37309089 0 14 0
0.5676716 1.7219149 -0.3414945 0 15 0
0.58126658 1.7631526 -0.30511767 0 16 0
0.59935582 1.8180226 -0.26902142 0 17 0
0.61614943 1.8689625 -0.22999588 0 18 0
0.63079119 1.9133754 -0.18805017 0 19 0
0.65173554 1.9769057 -0.14552106 0 20 0
0.67556828 2.0491974 -0.10045025 0 21 0
0.6979444 2.1170707 -0.051828757 0 22 0
0.73160571 2.2191753 6.6707915e-05 0 23 0
0.76625788 2.3242855 0.05704147 0 24 0
0.80902225 2.4540024 0.12044138 0 25 0
0.86910534 2.6362522 0.19421516 0 26 0
0.92631906 2.8097982 0.27632272 0 27 0
0.9646014 2.9259198 0.36024413 0 28 0
1.01966 3.0929289 0.457865 0 29 0
1.1281924 3.4221394 0.59242046 0 30 0
1.2081032 3.6645327 0.72698748 0 31 0
0.31625113 1.0075543 -0.62627107 0 0 0
0.3325986 1.0596362 -0.62417299 0 1 0
0.35044214 1.1164845 -0.62227702 0 2 0
0.3745164 1.1931834 -0.62813741 0 3 0
0.39531034 1.2594315 -0.62497675 0 4 0
0.41262972 1.3146099 -0.61352128 0 5 0
0.42927989 1.3676561 -0.59870267 0 6 0
0.44394293 1.4143716 -0.57901406 0 7 0
0.45563522 1.4516224 -0.55381036 0 8 0
0.46603689 1.4847614 -0.52577168 0 9 0
0.47899109 1.5260326 -0.49922648 0 10 0
0.49279347 1.570006 -0.47187701 0 11 0
0.50426859 1.6065649 -0.4407247 0 12 0
0.52184504 1.6625623 -0.41300535 0 13 0
0.53083712 1.6912104 -0.37677959 0 14 0
0.54916906 1.7496148 -0.34539372 0 15 0
0.5659743 1.8031552 -0.31060645 0 16 0
0.57976782 1.8471003 -0.27206838 0 17 0
0.59665239 1.9008933 -0.23285051 0 18 0
0.61795306 1.968756 -0.19260404 0 19 0
0.63383681 2.0193603 -0.14796318 0 20 0
0.65605718 2.090153 -0.10198711 0 21 0
0.68284547 2.1754987 -0.053014446 0 22 0
0.70897597 2.2587485 6.7585504e-05 0 23 0
0.74597609 2.3766284 0.05805805 0 24 0
0.79247326 2.524765 0.12334503 0 25 0
0.8418203 2.6819813 0.19667625 0 26 0
0.89300066 2.8450384 0.27850279 0 27 0
0.93274873 2.9716733 0.36419627 0 28 0
0.98183596 3.1280615 0.46093827 0 29 0
1.0801588 3.4413114 0.5930022 0 30 0
1.1472434 3.6550384 0.72177237 0 31 0
0.30041566 1.00734 -0.62340128 0 0 0
0.32176092 1.0789139 -0.63275081 0 1 0
0.33440238 1.1213027 -0.62223101 0 2 0
0.35210544 1.1806637 -0.61882997 0 3 0
0.37854216 1.2693102 -0.62712592 0 4 0
0.39215752 1.3149645 -0.61100465 0 5 0
0.40580383 1.3607227 -0.59306401 0 6 0
0.42211491 1.4154162 -0.57690918 0 7 0
0.43505892 1.4588196 -0.55412364 0 8 0
0.44971403 1.5079604 -0.53165287 0 9 0
0.45976835 1.5416741 -0.50213915 0 10 0
0.47684604 1.5989382 -0.47847241 0 11 0
0.48783323 1.63578 -0.44677791 0 12 0
0.49886724 1.6727787 -0.41372707 0 13 0
0.51500368 1.7268866 -0.3830463 0 14 0
0.5279814 1.7704029 -0.34797001 0 15 0
0.54487222 1.8270404 -0.31334534 0 16 0
0.55989045 1.8773988 -0.27532259 0 17 0
0.57741439 1.9361593 -0.23613383 0 18 0
0.59883457 2.0079846 -0.19558321 0 19 0
0.61334419 2.0566375 -0.15003593 0 20 0
0.63096601 2.1157262 -0.10278372 0 21 0
0.66062516 2.2151778 -0.053745449 0 22 0
0.69288886 2.3233631 6.9215042e-05 0 23 0
0.73134881 2.4523253 0.059645399 0 24 0
0.77569973 2.6010406 0.12651601 0 25 0
0.81786835 2.7424386 0.20023073 0 26 0
0.85862571 2.8791041 0.2806057 0 27 0
0.89623058 3.0051992 0.36669534 0 28 0
0.9432736 3.1629415 0.46404096 0 29 0
1.027787 3.4463279 0.59127104 0 30 0
1.0885565 3.6500978 0.71764636 0 31 0
0.28818697 1.0193859 -0.62823886 0 0 0
0.30410507 1.0756921 -0.6282441 0 1 0
0.31924051 1.1292297 -0.62403023 0 2 0
0.3391906 1.199798 -0.62625015 0 3 0
0.36127523 1.2779164 -0.62875873 0 4 0
0.37676215 1.3326974 -0.61667538 0 5 0
0.38389641 1.3579329 -0.58939284 0 6 0
0.39690953 1.4039634 -0.56986719 0 7 0
0.41043511 1.4518067 -0.5491721 0 8 0
0.43022108 1.5217943 -0.53430438 0 9 0
0.44455695 1.5725037 -0.5100559 0 10 0
0.45322251 1.603156 -0.47774434 0 11 0
0.47211814 1.6699942 -0.45423058 0 12 0
0.48504373 1.7157152 -0.42258611 0 13 0
0.49473387 1.7499915 -0.38656092 0 14 0
0.51318067 1.8152423 -0.35530299 0 15 0
0.52884722 1.8706585 -0.31949508 0 16 0
0.54122925 1.9144568 -0.27959242 0 17 0
0.55923975 1.978164 -0.24025586 0 18 0
0.57694334 2.040786 -0.19795352 0 19 0
0.59355336 2.0995395 -0.15253033 0 20 0
0.61401629 2.1719217 -0.10507604 0 21 0
0.63977963 2.2630527 -0.054679226 0 22 0
0.67199892 2.3770201 7.051976e-05 0 23 0
0.71089143 2.5145922 0.060906131 0 24 0
0.75134623 2.6576903 0.12873521 0 25 0
0.78567731 2.7791278 0.20206772 0 26 0
0.82098109 2.9040055 0.28185847 0 27 0
0.85645169 3.0294733 0.36812377 0 28 0
0.90523517 3.2020321 0.46782717 0 29 0
0.97320414 3.4424546 0.5881564 0 30 0
1.0302125 3.6441071 0.71349627 0 31 0
0.27230728 1.0186896 -0.62534362 0 0 0
0.28640208 1.0714178 -0.6232897 0 1 0
0.3026281 1.1321186 -0.62316912 0 2 0
0.32038596 1.19855 -0.62314123 0 3 0
0.33979318 1.2711515 -0.62297344 0 4 0
0.35534334 1.329324 -0.61269808 0 5 0
0.36485258 1.3648976 -0.59008867 0 6 0
0.37774652 1.4131333 -0.57133603 0 7 0
0.3972218 1.4859896 -0.55989438 0 8 0
0.41169104 1.5401183 -0.53861386 0 9 0
0.42332321 1.5836338 -0.51164824 0 10 0
0.43635485 1.6323845 -0.48454365 0 11 0
0.45587006 1.7053901 -0.46203598 0 12 0
0.46396136 1.7356592 -0.42581913 0 13 0
0.47917375 1.7925682 -0.39441037 0 14 0
0.49012733 1.833545 -0.35747567 0 15 0
0.50749761 1.8985265 -0.322981 0 16 0
0.5169335 1.9338257 -0.28131172 0 17 0
0.53731978 2.0100901 -0.2431744 0 18 0
0.557365 2.0850782 -0.20145534 0 19 0
0.57488251 2.1506104 -0.15562685 0 20 0
0.59326881 2.2193928 -0.10695087 0 21 0
0.61947054 2.3174124 -0.055772696 0 22 0
0.64767981 2.4229422 7.1599774e-05 0 23 0
0.68531686 2.5637405 0.06185263 0 24 0
0.71548343 2.6765924 0.12914151 0 25 0
0.75702548 2.8319993 0.2051031 0 26 0
0.78362811 2.9315188 0.28341118 0 27 0
0.8174721 3.0581276 0.37014595 0 28 0
0.85744363 3.2076595 0.46680838 0 29 0
0.91995895 3.4415264 0.58568805 0 30 0
0.97326684 3.6409488 0.71007758 0 31 0
0.25597021 1.0156196 -0.62114632 0 0 0
0.27327311 1.0842729 -0.62842822 0 1 0
0.28922451 1.1475636 -0.62932754 0 2 0
0.3044242 1.2078718 -0.62565827 0 3 0
0.3233707 1.2830464 -0.62647039 0 4 0
0.33438215 1.3267368 -0.60923725 0 5 0
0.34613457 1.3733671 -0.59154773 0 6 0
0.35810769 1.4208732 -0.57233435 0 7 0
0.38154078 1.5138493 -0.56827551 0 8 0
0.39414796 1.5638711 -0.54489195 0 9 0
0.40587577 1.6104038 -0.51836717 0 10 0
0.41799361 1.6584841 -0.49046469 0 11 0
0.43099287 1.7100616 -0.46158299 0 12 0
0.44337204 1.7591789 -0.42998832 0 13 0
0.45530879 1.8065406 -0.39601019 0 14 0
0.47287068 1.8762212 -0.3644391 0 15 0
0.48618189 1.9290366 -0.32695407 0 16 0
0.50063175 1.9863697 -0.28788337 0 17 0
0.51910561 2.059669 -0.248248 0 18 0
0.53487486 2.122237 -0.20428491 0 19 0
0.55025375 2.1832559 -0.15740316 0 20 0
0.56899172 2.2576034 -0.10838864 0 21 0
0.59631068 2.3659973 -0.056730755 0 22 0
0.62571174 2.4826527 7.3092124e-05 0 23 0
0.66437328 2.6360512 0.06336128 0 24 0
0.6911853 2.7424338 0.13182741 0 25 0
0.72154039 2.8628745 0.20657006 0 26 0
0.74570042 2.958735 0.28498131 0 27 0
0.7758683 3.0784328 0.37122142 0 28 0
0.81315857 3.2263906 0.46779257 0 29 0
0.87167543 3.4585693 0.58640504 0 30 0
0.9181096 3.6428072 0.70780462 0 31 0
0.2432708 1.0270416 -0.62593818 0 0 0
0.25695455 1.0848117 -0.62654465 0 1 0
0.27250797 1.1504751 -0.62872076 0 2 0
0.28780434 1.2150534 -0.62718016 0 3 0
0.30403706 1.2835848 -0.62454444 0 4 0
0.31735903 1.3398275 -0.61309975 0 5 0
0.3245613 1.3702341 -0.58813703 0 6 0
0.34314623 1.448696 -0.58150351 0 7 0
0.35885409 1.5150115 -0.56672561 0 8 0
0.371674 1.5691347 -0.54481649 0 9 0
0.38421625 1.6220856 -0.52030391 0 10 0
0.39979193 1.6878431 -0.49740377 0 11 0
0.40572646 1.7128974 -0.46073371 0 12 0
0.42500365 1.794282 -0.43703672 0 13 0
0.43474734 1.8354179 -0.4009352 0 14 0
0.45066455 1.9026172 -0.36827558 0 15 0
0.46488547 1.9626552 -0.33149037 0 16 0
0.47957996 2.0246923 -0.29241264 0 17 0
0.49469495 2.088505 -0.25084442 0 18 0
0.50968707 2.1517987 -0.20640711 0 19 0
0.52588058 2.2201645 -0.15950508 0 20 0
0.54853457 2.3158052 -0.11079463 0 21 0
0.57336688 2.4206424 -0.057838302 0 22 0
0.60471642 2.552994 7.4900541e-05 0 23 0
0.63356525 2.6747882 0.064067841 0 24 0
0.65735328 2.7752166 0.13293736 0 25 0
0.68339115 2.8851433 0.20744981 0 26 0
0.70973945 2.9963806 0.28759933 0 27 0
0.73705256 3.1116912 0.37392151 0 28 0
0.76894259 3.2463248 0.46903896 0 29 0
0.82096821 3.4659665 0.58560687 0 30 0
0.86448473 3.6496847 0.70666432 0 31 0
0.22793627 1.0276651 -0.62426585 0 0 0
0.24109454 1.08699 -0.62574559 0 1 0
0.25675783 1.157609 -0.63054633 0 2 0
0.27064008 1.2201979 -0.62777174 0 3 0
0.28726751 1.2951638 -0.62811339 0 4 0
0.29637828 1.3362403 -0.60945463 0 5 0
0.30987695 1.3970999 -0.59770346 0 6 0
0.32595792 1.469602 -0.58796215 0 7 0
0.34221014 1.5428761 -0.57525778 0 8 0
0.35795638 1.613869 -0.55851245 0 9 0
0.36824426 1.6602526 -0.53080136 0 10 0
0.37371317 1.6849096 -0.49491221 0 11 0
0.3900364 1.7585039 -0.47145095 0 12 0
0.40421411 1.8224249 -0.44243702 0 13 0
0.41580927 1.8747025 -0.40817475 0 14 0
0.43158883 1.9458456 -0.37540877 0 15 0
0.44500974 2.0063546 -0.33776072 0 16 0
0.45810091 2.065377 -0.29731101 0 17 0
0.47219607 2.128926 -0.25486138 0 18 0
0.48538595 2.1883934 -0.20922951 0 19 0
0.50203562 2.2634594 -0.16208269 0 20 0
0.52147174 2.3510885 -0.1121141 0 21 0
0.54838598 2.4724331 -0.058882196 0 22 0
0.57842541 2.6078675 7.6259734e-05 0 23 0
0.60117787 2.7104485 0.064709261 0 24 0
0.6264928 2.8245823 0.1348587 0 25 0
0.64781827 2.9207299 0.20932041 0 26 0
0.67270762 3.0329449 0.29015496 0 27 0
0.69339073 3.1261961 0.37443352 0 28 0
0.72205037 3.25541 0.46881038 0 29 0
0.76802087 3.4626708 0.58313298 0 30 0
0.80474252 3.6282327 0.70020866 0 31 0
0.21392559 1.0343062 -0.62637579 0 0 0
0.22354566 1.0808181 -0.62028712 0 1 0
0.24007501 1.1607356 -0.6303131 0 2 0
0.25325587 1.2244637 -0.6280371 0 3 0
0.26927605 1.3019193 -0.62945592 0 4 0
0.27959102 1.351791 -0.61465907 0 5 0
0.28925735 1.3985267 -0.5964815 0 6 0
0.31149516 1.5060439 -0.60069662 0 7 0
0.32850701 1.5882944 -0.59037828 0 8 0
0.33648318 1.6268582 -0.56128341 0 9 0
0.35018107 1.693086 -0.53964084 0 10 0
0.36002371 1.740674 -0.50972617 0 11 0
0.36953223 1.7866467 -0.47752902 0 12 0
0.38307005 1.8521006 -0.44826442 0 13 0
0.39417833 1.9058079 -0.41367644 0 14 0
0.40543678 1.9602412 -0.37702787 0 15 0
0.42041889 2.0326779 -0.34114414 0 16 0
0.4348681 2.1025383 -0.30173343 0 17 0
0.44891328 2.170445 -0.25903603 0 18 0
0.46405366 2.2436471 -0.2138553 0 19 0
0.48272556 2.3339236 -0.16661668 0 20 0
0.49592397 2.3977365 -0.11398839 0 21 0
0.52132148 2.5205305 -0.059843823 0 22 0
0.54679 2.6436679 7.7069861e-05 0 23 0
0.56770498 2.7447896 0.065328427 0 24 0
0.5904873 2.8549397 0.13589065 0 25 0
0.60850173 2.9420373 0.21020173 0 26 0
0.62878984 3.0401282 0.28995141 0 27 0
0.65070426 3.1460817 0.37566125 0 28 0
0.68009216 3.2881689 0.47207776 0 29 0
0.71840215 3.4733934 0.58314729 0 30 0
0.75079542 3.6300113 0.69840646 0 31 0
0.1974771 1.0288033 -0.62126791 0 0 0
0.21266079 1.1079063 -0.63402134 0 1 0
0.22091854 1.1509271 -0.62320584 0 2 0
0.23357794 1.2168791 -0.6223684 0 3 0
0.24790613 1.2915254 -0.62265122 0 4 0
0.26192832 1.3645773 -0.61870486 0 5 0
0.27447301 1.4299316 -0.60813802 0 6 0
0.29382288 1.5307394 -0.60880679 0 7 0
0.30337092 1.5804821 -0.58580035 0 8 0
0.31644613 1.6486005 -0.56716388 0 9 0
0.32724413 1.7048553 -0.54184359 0 10 0
0.33649662 1.7530582 -0.51188982 0 11 0
0.34996018 1.8231999 -0.48591024 0 12 0
0.35862911 1.8683628 -0.45091179 0 13 0
0.37162751 1.9360809 -0.41905004 0 14 0
0.38569534 2.0093706 -0.38537601 0 15 0
0.40181509 2.0933502 -0.35032564 0 16 0
0.4103682 2.1379097 -0.30593526 0 17 0
0.42530099 2.2157056 -0.26368421 0 18 0
0.43783 2.2809782 -0.21679401 0 19 0
0.45363283 2.363307 -0.16823356 0 20 0
0.47355875 2.4671156 -0.11695246 0 21 0
0.49470133 2.5772629 -0.061016425 0 22 0
0.51370138 2.6762481 7.7797333e-05 0 23 0
0.5340122 2.7820621 0.066026859 0 24 0
0.55527788 2.8928506 0.13730277 0 25 0
0.56825948 2.9604814 0.21091677 0 26 0
0.59042913 3.0759792 0.29253474 0 27 0
0.60966885 3.1762133 0.37817842 0 28 0
0.63568777 3.3117647 0.47411051 0 29 0
0.66773176 3.4787056 0.58237487 0 30 0
0.69793379 3.63605 0.69757479 0 31 0
0.18478845 1.0431293 -0.62825739 0 0 0
0.19490866 1.1002578 -0.62798345 0 1 0
0.20520033 1.1583543 -0.62557304 0 2 0
0.21673228 1.223452 -0.62407947 0 3 0
0.23269476 1.31356 -0.63160384 0 4 0
0.24373734 1.3758953 -0.62219095 0 5 0
0.25865635 1.460113 -0.61933595 0 6 0
0.27222523 1.5367093 -0.60956895 0 7 0
0.2841315 1.60392 -0.59291935 0 8 0
0.29760796 1.6799946 -0.5764398 0 9 0
0.30681336 1.7319589 -0.54900581 0 10 0
0.31631213 1.7855794 -0.52001065 0 11 0
0.3264519 1.8428183 -0.48984334 0 12 0
0.33925599 1.9150972 -0.46097156 0 13 0
0.34931865 1.9719009 -0.42567718 0 14 0
0.36244249 2.045985 -0.3913632 0 15 0
0.37207428 2.1003563 -0.35057095 0 16 0
0.38878411 2.1946831 -0.31323114 0 17 0
0.39947903 2.2550559 -0.26765928 0 18 0
0.41261375 2.3292012 -0.22079338 0 19 0
0.42715433 2.4112828 -0.17119598 0 20 0
0.44153231 2.4924462 -0.11784159 0 21 0
0.46193588 2.6076243 -0.061572384 0 22 0
0.48443562 2.7346351 7.9284924e-05 0 23 0
0.50083965 2.8272359 0.066921979 0 24 0
0.51713324 2.9192131 0.13818854 0 25 0
0.53308254 3.0092466 0.21382549 0 26 0
0.54933572 3.1009958 0.29413596 0 27 0
0.56695795 3.2004731 0.38006175 0 28 0
0.58835465 3.3212571 0.47421527 0 29 0
0.62014639 3.5007215 0.58451468 0 30 0
0.64306498 3.6300967 0.69459563 0 31 0
0.16969831 1.0447931 -0.62773228 0 0 0
0.17785713 1.0950252 -0.62348002 0 1 0
0.18887867 1.1628822 -0.62649417 0 2 0
0.199306 1.2270808 -0.6244114 0 3 0
0.21298389 1.3112924 -0.62898326 0 4 0
0.2241497 1.3800378 -0.62254959 0 5 0
0.24136887 1.4860523 -0.62880874 0 6 0
0.25258186 1.555088 -0.61536217 0 7 0
0.26193112 1.6126492 -0.59469944 0 8 0
0.27486876 1.6923033 -0.57925385 0 9 0
0.2852757 1.7563764 -0.55539459 0 10 0
0.29392681 1.8096392 -0.52573848 0 11 0
0.3044962 1.8747126 -0.49711177 0 12 0
0.31250829 1.9240412 -0.4620004 0 13 0
0.32641053 2.009634 -0.43276978 0 14 0
0.33591259 2.068136 -0.39464021 0 15 0
0.3477374 2.1409385 -0.35647726 0 16 0
0.36180353 2.2275405 -0.31714904 0 17 0
0.37343806 2.2991717 -0.27223319 0 18 0
0.38571048 2.3747301 -0.2245629 0 19 0
0.39937839 2.4588802 -0.1741516 0 20 0
0.41526693 2.5567021 -0.12058619 0 21 0
0.43542176 2.6807909 -0.063146397 0 22 0
0.44923106 2.7658117 7.9994199e-05 0 23 0
0.4665454 2.872412 0.067826301 0 24 0
0.47712928 2.9375746 0.13872023 0 25 0
0.4914788 3.0259211 0.21448849 0 26 0
0.50501192 3.1092415 0.2942023 0 27 0
0.52344805 3.2227485 0.38177815 0 28 0
0.54140162 3.3332844 0.47477746 0 29 0
0.56801653 3.4971464 0.58250058 0 30 0
0.59059161 3.6361358 0.69406259 0 31 0
0.15308635 1.0360061 -0.62107265 0 0 0
0.16382498 1.1086793 -0.62985468 0 1 0
0.17241523 1.1668135 -0.62721831 0 2 0
0.18036911 1.2206411 -0.61975729 0 3 0
0.19526047 1.3214178 -0.63243473 0 4 0
0.20564586 1.3917005 -0.62641883 0 5 0
0.21902183 1.4822218 -0.62579733 0 6 0
0.23109218 1.5639076 -0.61747998 0 7 0
0.24281742 1.6432576 -0.60464334 0 8 0
0.25269899 1.7101308 -0.58405811 0 9 0
0.26118204 1.7675395 -0.55768526 0 10 0
0.27028394 1.8291363 -0.5302245 0 11 0
0.28038293 1.8974808 -0.50203353 0 12 0
0.28971171 1.9606131 -0.46973822 0 13 0
0.3027024 2.048527 -0.44016719 0 14 0
0.31244212 2.1144402 -0.40258133 0 15 0
0.32348555 2.1891763 -0.3637009 0 16 0
0.33350593 2.2569885 -0.32062927 0 17 0
0.34578326 2.3400753 -0.27646202 0 18 0
0.35535094 2.404824 -0.22690447 0 19 0
0.36728963 2.4856188 -0.17565504 0 20 0
0.38536289 2.6079288 -0.12272956 0 21 0
0.40405074 2.7343981 -0.064266309 0 22 0
0.41509145 2.8091156 8.1066522e-05 0 23 0
0.42873427 2.901443 0.068359904 0 24 0
0.43914255 2.9718807 0.14002909 0 25 0
0.45235378 3.0612872 0.21651423 0 26 0
0.46325326 3.1350489 0.2959865 0 27 0
0.47728485 3.2300072 0.38178965 0 28 0
0.49385527 3.3421469 0.47498426 0 29 0
0.51907349 3.51281 0.58381224 0 30 0
0.53879482 3.6462734 0.69445443 0 31 0
0.13912135 1.0446839 -0.62501717 0 0 0
0.1473939 1.1068038 -0.62752634 0 1 0
0.1544015 1.159425 -0.62199491 0 2 0
0.16344316 1.2273202 -0.62189698 0 3 0
0.17605141 1.3219975 -0.63144141 0 4 0
0.1839028 1.3809547 -0.62033367 0 5 0
0.19993754 1.5013622 -0.63260537 0 6 0
0.21307859 1.6000404 -0.63047761 0 7 0
0.22013417 1.6530218 -0.6070146 0 8 0
0.23155826 1.7388071 -0.59265924 0 9 0
0.24031 1.8045253 -0.56821132 0 10 0
0.24773011 1.860244 -0.53815895 0 11 0
0.25745428 1.9332643 -0.51047379 0 12 0
0.26695377 2.0045974 -0.47931173 0 13 0
0.27527085 2.0670519 -0.4432556 0 14 0
0.28499645 2.1400828 -0.40664524 0 15 0
0.29517901 2.2165451 -0.36750826 0 16 0
0.30497351 2.2900937 -0.32467881 0 17 0
0.31494021 2.3649352 -0.27883789 0 18 0
0.32756248 2.4597178 -0.23161778 0 19 0
0.34047687 2.556694 -0.18031496 0 20 0
0.35536 2.6684537 -0.12532566 0 21 0
0.36703753 2.7561421 -0.064647257 0 22 0
0.37851542 2.8423312 8.1860337e-05 0 23 0
0.38930878 2.9233804 0.068738431 0 24 0
0.39885932 2.9950969 0.14083956 0 25 0
0.40948147 3.0748601 0.21703744 0 26 0
0.42118317 3.16273 0.29800025 0 27 0
0.43294138 3.2510242 0.38350213 0 28 0
0.45016998 3.3803966 0.47945544 0 29 0
0.46674001 3.5048237 0.5813151 0 30 0
0.48479673 3.6404142 0.69194603 0 31 0
0.12370544 1.0427735 -0.622751 0 0 0
0.13076666 1.102296 -0.62384546 0 1 0
0.13914137 1.1728904 -0.62808597 0 2 0
0.14619635 1.2323604 -0.62332672 0 3 0
0.15810362 1.3327324 -0.63542289 0 4 0
0.16601762 1.3994435 -0.62750721 0 5 0
0.17713512 1.4931583 -0.628016 0 6 0
0.18941 1.5966293 -0.62800086 0 7 0
0.1984258 1.6726278 -0.61310846 0 8 0
0.20735891 1.7479293 -0.59469593 0 9 0
0.21807739 1.8382807 -0.57779819 0 10 0
0.2245221 1.8926063 -0.54653549 0 11 0
0.23205672 1.9561193 -0.51557881 0 12 0
0.24231742 2.0426118 -0.48752195 0 13 0
0.25044185 2.1110964 -0.45188549 0 14 0
0.25755095 2.1710227 -0.41178161 0 15 0
0.26683277 2.2492635 -0.37226167 0 16 0
0.27477422 2.316206 -0.32778972 0 17 0
0.28615436 2.4121346 -0.28389093 0 18 0
0.29789418 2.5110953 -0.23603003 0 19 0
0.30802265 2.596473 -0.18279077 0 20 0
0.32266235 2.7198784 -0.12751089 0 21 0
0.33359814 2.8120613 -0.06584014 0 22 0
0.34350687 2.895587 8.3243984e-05 0 23 0
0.35019118 2.9519322 0.069284827 0 24 0
0.35893905 3.0256724 0.14202119 0 25 0
0.36734164 3.0965018 0.21817152 0 26 0
0.37775627 3.1842918 0.29949173 0 27 0
0.390351 3.2904589 0.3874552 0 28 0
0.40336472 3.4001579 0.48139009 0 29 0
0.41811416 3.524488 0.58352429 0 30 0
0.43220481 3.643265 0.69124126 0 31 0
0.11028585 1.0590063 -0.63143796 0 0 0
0.11557642 1.1098084 -0.62709665 0 1 0
0.12208923 1.1723468 -0.62679487 0 2 0
0.12916283 1.2402703 -0.62632823 0 3 0
0.13648967 1.3106254 -0.6238873 0 4 0
0.14537002 1.3958977 -0.62492031 0 5 0
0.15479338 1.4863845 -0.62417114 0 6 0
0.16629276 1.5968058 -0.62706983 0 7 0
0.17520218 1.6823574 -0.61569256 0 8 0
0.18165395 1.7443098 -0.5925191 0 9 0
0.1934952 1.858014 -0.5830704 0 10 0
0.20058896 1.9261309 -0.55533051 0 11 0
0.20787817 1.9961246 -0.52528501 0 12 0
0.21482867 2.062866 -0.49157184 0 13 0
0.2223969 2.1355388 -0.45638931 0 14 0
0.22875884 2.1966288 -0.41597468 0 15 0
0.23970737 2.3017607 -0.38034332 0 16 0
0.24701793 2.3719594 -0.33514526 0 17 0
0.25340629 2.4333029 -0.28592613 0 18 0
0.26377529 2.5328698 -0.2376975 0 19 0
0.27896523 2.6787293 -0.18828119 0 20 0
0.28882077 2.773366 -0.12981135 0 21 0
0.29551417 2.8376384 -0.06633316 0 22 0
0.30342835 2.9136333 8.3629369e-05 0 23 0
0.31063077 2.9827938 0.069897659 0 24 0
0.31743655 3.0481455 0.14284815 0 25 0
0.3248882 3.119699 0.21945581 0 26 0
0.3327665 3.1953495 0.30005303 0 27 0
0.34167677 3.2809091 0.38571534 0 28 0
0.35507938 3.409606 0.48195881 0 29 0
0.36830953 3.5366468 0.58460462 0 30 0
0.38235843 3.67155 0.69549817 0 31 0
0.094236746 1.0506505 -0.6255874 0 0 0
0.098379381 1.0968369 -0.61890799 0 1 0
0.10469028 1.1671975 -0.62317675 0 2 0
0.11144976 1.2425593 -0.62661445 0 3 0
0.11848262 1.320969 -0.62793946 0 4 0
0.12604311 1.4052613 -0.62824017 0 5 0
0.13405555 1.4945925 -0.62674791 0 6 0
0.14390783 1.604436 -0.62919295 0 7 0
0.15200673 1.694731 -0.61936122 0 8 0
0.15914975 1.7743689 -0.60189438 0 9 0
0.16866808 1.8804892 -0.58930552 0 10 0
0.17463011 1.9469603 -0.56055784 0 11 0
0.18060412 2.0135648 -0.52914 0 12 0
0.18857999 2.1024883 -0.50031918 0 13 0
0.19418228 2.1649485 -0.46203312 0 14 0
0.2029033 2.2621796 -0.42779422 0 15 0
0.20835187 2.322926 -0.38330865 0 16 0
0.21473889 2.3941352 -0.33780968 0 17 0
0.22241713 2.4797404 -0.29097888 0 18 0
0.2313344 2.5791595 -0.24170606 0 19 0
0.24063405 2.6828418 -0.18830886 0 20 0
0.24840422 2.7694716 -0.12944938 0 21 0
0.25560376 2.8497398 -0.066523708 0 22 0
0.26167038 2.917377 8.3620755e-05 0 23 0
0.26914549 3.0007172 0.070220202 0 24 0
0.27349705 3.049233 0.14270104 0 25 0
0.2810863 3.133846 0.22014542 0 26 0
0.28957915 3.2285333 0.30274886 0 27 0
0.29721573 3.313674 0.38902727 0 28 0
0.30566689 3.4078963 0.48104942 0 29 0
0.31910586 3.5577281 0.58727419 0 30 0
0.33021781 3.6816156 0.69643819 0 31 0
0.079857275 1.0607525 -0.63085723 0 0 0
0.08393272 1.1148871 -0.62835085 0 1 0
0.087859519 1.1670471 -0.62236136 0 2 0
0.094460912 1.2547342 -0.63200754 0 3 0
0.099917129 1.3272096 -0.63016164 0 4 0
0.10495263 1.3940967 -0.62251353 0 5 0
0.11302614 1.501338 -0.62883377 0 6 0
0.12088468 1.6057239 -0.62895501 0 7 0
0.1282037 1.7029432 -0.62162817 0 8 0
0.13552259 1.8001606 -0.60992283 0 9 0
0.14275736 1.8962609 -0.59354687 0 10 0
0.1490683 1.9800897 -0.56942362 0 11 0
0.15383908 2.0434606 -0.53636259 0 12 0
0.16086644 2.1368058 -0.50788563 0 13 0
0.16630426 2.2090368 -0.47088605 0 14 0
0.17080903 2.2688742 -0.42855397 0 15 0
0.17706741 2.352005 -0.38764906 0 16 0
0.18271753 2.4270561 -0.3420507 0 17 0
0.18974674 2.5204256 -0.29540405 0 18 0
0.19512445 2.5918584 -0.24260955 0 19 0
0.20306973 2.6973965 -0.18910708 0 20 0
0.20916075 2.7783039 -0.12970899 0 21 0
0.21588145 2.8675756 -0.066861086 0 22 0
0.220787 2.9327369 8.396183e-05 0 23 0
0.22578904 2.9991794 0.07010141 0 24 0
0.23238321 3.0867703 0.1442873 0 25 0
0.23859353 3.1692626 0.22237067 0 26 0
0.24270287 3.2238476 0.30195278 0 27 0
0.25055376 3.3281317 0.39026362 0 28 0
0.25923201 3.4434059 0.48548836 0 29 0
0.26746434 3.5527565 0.58576161 0 30 0
0.27778292 3.6898193 0.69716656 0 31 0
0.063554958 1.0435179 -0.62000287 0 0 0
0.067458928 1.1076177 -0.62364578 0 1 0
0.072127782 1.1842763 -0.63093406 0 2 0
0.075502224 1.2396818 -0.6238175 0 3 0
0.08022207 1.3171777 -0.62478918 0 4 0
0.085299514 1.4005449 -0.62478369 0 5 0
0.09115874 1.4967484 -0.62630075 0 6 0
0.097428136 1.5996865 -0.62597984 0 7 0
0.10416719 1.7103361 -0.62371868 0 8 0
0.11068946 1.8174262 -0.61517286 0 9 0
0.11736193 1.9269824 -0.60257542 0 10 0
0.12269342 2.0145209 -0.57876086 0 11 0
0.12663335 2.079211 -0.54521471 0 12 0
0.13049167 2.1425614 -0.50875759 0 13 0
0.13624588 2.2370405 -0.47639093 0 14 0
0.13913335 2.2844505 -0.43107578 0 15 0
0.14518191 2.3837624 -0.39250052 0 16 0
0.14907411 2.447669 -0.34461972 0 17 0
0.1556581 2.5557725 -0.29925504 0 18 0
0.15929791 2.6155353 -0.24458733 0 19 0
0.16610275 2.7272649 -0.19101481 0 20 0
0.16936731 2.7808661 -0.12970215 0 21 0
0.1756406 2.8838682 -0.067175463 0 22 0
0.18029451 2.9602814 8.4667859e-05 0 23 0
0.18371861 3.0165021 0.070437625 0 24 0
0.18868226 3.098001 0.14467122 0 25 0
0.19336027 3.1748099 0.2225429 0 26 0
0.19841738 3.2578435 0.30483967 0 27 0
0.20381442 3.3464582 0.39203036 0 28 0
0.21060154 3.4578969 0.48705655 0 29 0
0.21821126 3.5828421 0.59014654 0 30 0
0.22566456 3.7052186 0.69939417 0 31 0
0.049040757 1.0534964 -0.62545037 0 0 0
0.052166659 1.1206472 -0.63049698 0 1 0
0.054431234 1.1692948 -0.62247378 0 2 0
0.057732943 1.2402223 -0.62360978 0 3 0
0.061654057 1.324456 -0.62775868 0 4 0
0.065365493 1.4041853 -0.62592614 0 5 0
0.069683507 1.4969451 -0.62590158 0 6 0
0.074263439 1.5953314 -0.62379575 0 7 0
0.079692952 1.7119685 -0.62383413 0 8 0
0.0853789 1.8341144 -0.6203444 0 9 0
0.089794122 1.9289625 -0.60273093 0 10 0
0.094504721 2.0301559 -0.58280438 0 11 0
0.098230027 2.110183 -0.55291092 0 12 0
0.10138787 2.17802 -0.51677984 0 13 0
0.10458468 2.2466941 -0.47807893 0 14 0
0.10825125 2.3254595 -0.43847689 0 15 0
0.11153663 2.3960361 -0.39421824 0 16 0
0.11507761 2.4721038 -0.34779248 0 17 0
0.11908937 2.5582848 -0.29931897 0 18 0
0.12201138 2.6210554 -0.24491514 0 19 0
0.12762122 2.7415662 -0.19186887 0 20 0
0.13024971 2.7980318 -0.13040246 0 21 0
0.1348792 2.8974829 -0.067440718 0 22 0
0.13768265 2.9577065 8.4529187e-05 0 23 0
0.14092848 3.0274336 0.070638545 0 24 0
0.14430426 3.0999522 0.14465106 0 25 0
0.14721707 3.1625254 0.22151141 0 26 0
0.15263057 3.2788186 0.30656651 0 27 0
0.15661488 3.3644099 0.39383042 0 28 0
0.16049106 3.4476783 0.48524395 0 29 0
0.16652122 3.5772183 0.58876729 0 30 0
0.17291558 3.7145824 0.70062274 0 31 0
0.033856899 1.0509489 -0.62358642 0 0 0
0.035667058 1.1071379 -0.62254542 0 1 0
0.038282465 1.1883225 -0.63224667 0 2 0
0.040031321 1.2426085 -0.62445754 0 3 0
0.042464115 1.3181248 -0.6244058 0 4 0
0.045605369 1.415632 -0.63067311 0 5 0
0.048282702 1.498739 -0.62629855 0 6 0
0.051291734 1.592142 -0.62219787 0 7 0
0.055546809 1.7242235 -0.62794572 0 8 0
0.058843374 1.8265518 -0.61743844 0 9 0
0.062401433 1.9369972 -0.60490048 0 10 0
0.066611052 2.0676675 -0.59323853 0 11 0
0.069041826 2.143121 -0.56122494 0 12 0
0.071234196 2.211174 -0.5243507 0 13 0
0.073395401 2.27826 -0.4845227 0 14 0
0.075977884 2.3584225 -0.44444168 0 15 0
0.077606112 2.4089642 -0.39612192 0 16 0
0.080450848 2.4972675 -0.35113472 0 17 0
0.083341911 2.5870087 -0.30250913 0 18 0
0.085814498 2.6637602 -0.24876526 0 19 0
0.088634163 2.7512851 -0.19244054 0 20 0
0.090917632 2.822166 -0.13145313 0 21 0
0.093575507 2.9046688 -0.067569882 0 22 0
0.095806383 2.9739172 8.4944586e-05 0 23 0
0.097971939 3.0411379 0.070918322 0 24 0
0.10004044 3.105346 0.14482109 0 25 0
0.10286691 3.1930823 0.22352567 0 26 0
0.10533662 3.2697444 0.30554581 0 27 0
0.10884342 3.3785987 0.39526847 0 28 0
0.11149568 3.4609272 0.4868342 0 29 0
0.11574045 3.5926888 0.59098035 0 30 0
0.12072417 3.7473881 0.70641208 0 31 0
0.018962549 1.0597249 -0.62856829 0 0 0
0.01992658 1.1136 -0.62595457 0 1 0
0.021096829 1.1789997 -0.62706149 0 2 0
0.022278804 1.2450544 -0.62546235 0 3 0
0.023520872 1.3144675 -0.62245017 0 4 0
0.025218081 1.4093163 -0.62763429 0 5 0
0.026761768 1.4955856 -0.62475669 0 6 0
0.028603118 1.5984896 -0.62445456 0 7 0
0.030529134 1.7061254 -0.62113178 0 8 0
0.033147145 1.8524333 -0.62596273 0 9 0
0.034999222 1.9559368 -0.61059612 0 10 0
0.037444841 2.0926108 -0.60017979 0 11 0
0.038747687 2.1654205 -0.56686121 0 12 0
0.040076055 2.2396564 -0.53091449 0 13 0
0.041057713 2.2945166 -0.48780513 0 14 0
0.042418189 2.3705471 -0.44656634 0 15 0
0.04397836 2.4577374 -0.40399712 0 16 0
0.045320671 2.5327525 -0.35599652 0 17 0
0.046205182 2.5821836 -0.30183664 0 18 0
0.047696579 2.6655307 -0.24884138 0 19 0
0.049383886 2.7598259 -0.19296874 0 20 0
0.050686195 2.8326058 -0.1318921 0 21 0
0.052093185 2.9112356 -0.067698359 0 22 0
0.053145383 2.9700379 8.4803367e-05 0 23 0
0.054432102 3.0419464 0.070911743 0 24 0
0.055721171 3.1139863 0.14517197 0 25 0
0.057114508 3.191853 0.22335951 0 26 0
0.058758561 3.2837312 0.30674282 0 27 0
0.06029918 3.3698292 0.39410117 0 28 0
0.062290341 3.4811053 0.48949701 0 29 0
0.064216763 3.5887637 0.59012306 0 30 0
0.067360833 3.7644708 0.70937788 0 31 0
0.0038162607 1.0661546 -0.63228482 0 0 0
0.0039686011 1.1087141 -0.6231125 0 1 0
0.0041895141 1.170431 -0.62240857 0 2 0
0.0044592535 1.2457885 -0.62573493 0 3 0
0.0047774171 1.3346744 -0.63192171 0 4 0
0.005035575 1.4067962 -0.62641573 0 5 0
0.0054059322 1.5102636 -0.63079131 0 6 0
0.0057467883 1.6054891 -0.62709254 0 7 0
0.0061719175 1.7242579 -0.62763667 0 8 0
0.0066680121 1.8628528 -0.6293869 0 9 0
0.0070282314 1.9634877 -0.61285913 0 10 0
0.0075281402 2.1031482 -0.6031093 0 11 0
0.007833194 2.1883712 -0.57278126 0 12 0
0.0080610905 2.2520392 -0.53376776 0 13 0
0.0083409781 2.3302317 -0.4953219 0 14 0
0.008587867 2.3992057 -0.45189562 0 15 0
0.0087637166 2.448333 -0.40238941 0 16 0
0.0090359403 2.5243845 -0.3547658 0 17 0
0.0093434025 2.6102808 -0.30507407 0 18 0
0.0096215829 2.6879964 -0.25090009 0 19 0
0.0098966537 2.7648432 -0.19328985 0 20 0
0.010183698 2.8450353 -0.13245048 0 21 0
0.01040412 2.906615 -0.067580529 0 22 0
0.010669196 2.9806697 8.509386e-05 0 23 0
0.010949252 3.0589094 0.071296215 0 24 0
0.011231393 3.1377316 0.14625648 0 25 0
0.011505606 3.2143385 0.22489844 0 26 0
0.011805176 3.2980301 0.30803117 0 27 0
0.012084441 3.3760488 0.39476788 0 28 0
0.012501601 3.4925914 0.49103665 0 29 0
0.01292602 3.6111617 0.59371489 0 30 0
0.013512649 3.7750492 0.71126199 0 31 0
-0.011433204 1.065194 -0.63174748 0 0 0
-0.012024366 1.1202706 -0.62963963 0 1 0
-0.012620013 1.175765 -0.6252771 0 2 0
-0.013430311 1.2512579 -0.62851435 0 3 0
-0.014189701 1.3220077 -0.62595654 0 4 0
-0.015090196 1.4059041 -0.62605047 0 5 0
-0.016089793 1.4990332 -0.62613273 0 6 0
-0.017081222 1.5914012 -0.62162167 0 7 0
-0.018584229 1.7314314 -0.63028014 0 8 0
-0.019770268 1.841931 -0.6223501 0 9 0
-0.021449758 1.9984034 -0.62378919 0 10 0
-0.022699196 2.1148093 -0.60648441 0 11 0
-0.02376445 2.2140555 -0.57953352 0 12 0
-0.024473753 2.280139 -0.54045558 0 13 0
-0.025022956 2.3313065 -0.4955757 0 14 0
-0.025739387 2.3980539 -0.45170182 0 15 0
-0.026595643 2.4778285 -0.40725794 0 16 0
-0.027351303 2.5482309 -0.3581354 0 17 0
-0.027955873 2.6045566 -0.30442068 0 18 0
-0.028909151 2.6933703 -0.2514146 0 19 0
-0.029819869 2.778219 -0.19423489 0 20 0
-0.030486466 2.8403239 -0.13223791 0 21 0
-0.031297099 2.915848 -0.067798667 0 22 0
-0.032171283 2.9972925 8.5572799e-05 0 23 0
-0.032823514 3.0580587 0.07128004 0 24 0
-0.033760782 3.145381 0.14662056 0 25 0
-0.03457953 3.2216611 0.22542231 0 26 0
-0.035416305 3.2996206 0.3081955 0 27 0
-0.036578923 3.407938 0.39851716 0 28 0
-0.037551239 3.4985256 0.49189615 0 29 0
-0.038953833 3.6292005 0.59671122 0 30 0
-0.040659543 3.788116 0.71376044 0 31 0
-0.026683243 1.0651672 -0.6318934 0 0 0
-0.027757805 1.1080625 -0.62293762 0 1 0
-0.029254241 1.1677986 -0.62119961 0 2 0
-0.031283043 1.2487863 -0.62743348 0 3 0
-0.032889001 1.3128945 -0.62180072 0 4 0
-0.035162304 1.4036424 -0.62520349 0 5 0
-0.037656266 1.5031987 -0.62803346 0 6 0
-0.04002741 1.5978523 -0.62430149 0 7 0
-0.042902138 1.7126085 -0.62358779 0 8 0
-0.046278134 1.8473747 -0.6243493 0 9 0
-0.049835384 1.9893764 -0.62113053 0 10 0
-0.053365391 2.1302905 -0.61108059 0 11 0
-0.055406343 2.2117634 -0.57908177 0 12 0
-0.056933835 2.2727392 -0.53883952 0 13 0
-0.058549237 2.3372242 -0.49696091 0 14 0
-0.060288239 2.4066434 -0.45343587 0 15 0
-0.061755192 2.4652026 -0.40528649 0 16 0
-0.06377624 2.5458808 -0.35789675 0 17 0
-0.065982766 2.6339631 -0.30793655 0 18 0
-0.067530684 2.6957545 -0.25170159 0 19 0
-0.069549583 2.7763467 -0.1941537 0 20 0
-0.071478605 2.8533514 -0.13287845 0 21 0
-0.073356502 2.9283149 -0.068105988 0 22 0
-0.074917771 2.990639 8.540471e-05 0 23 0
-0.076686241 3.0612345 0.071372338 0 24 0
-0.079188228 3.1611114 0.14739154 0 25 0
-0.080954239 3.2316086 0.22617626 0 26 0
-0.083261371 3.3237069 0.31052476 0 27 0
-0.085128762 3.3982513 0.39748618 0 28 0
-0.087897345 3.5087702 0.49346289 0 29 0
-0.090775833 3.6236763 0.59595549 0 30 0
-0.095914394 3.8288023 0.72161138 0 31 0
-0.041487448 1.0535601 -0.62529594 0 0 0
-0.043958519 1.1163123 -0.6278649 0 1 0
-0.046035748 1.1690629 -0.62215883 0 2 0
-0.04912442 1.2474986 -0.62707555 0 3 0
-0.051588517 1.3100735 -0.62075084 0 4 0
-0.055470157 1.4086466 -0.62772173 0 5 0
-0.058710542 1.4909351 -0.62319696 0 6 0
-0.063266754 1.6066386 -0.6280238 0 7 0
-0.067735165 1.7201123 -0.62660891 0 8 0
-0.072161265 1.8325117 -0.61961168 0 9 0
-0.078444555 1.992074 -0.62225962 0 10 0
-0.08402463 2.1337781 -0.61236322 0 11 0
-0.087925367 2.232836 -0.58486861 0 12 0
-0.09034691 2.2943304 -0.54420942 0 13 0
-0.092737116 2.3550286 -0.50097758 0 14 0
-0.095133334 2.41588 -0.45538601 0 15 0
-0.097864382 2.485234 -0.40876815 0 16 0
-0.10098382 2.5644512 -0.36067361 0 17 0
-0.10338633 2.6254621 -0.30708423 0 18 0
-0.1066096 2.7073159 -0.25289765 0 19 0
-0.10975306 2.7871432 -0.19499859 0 20 0
-0.1122584 2.8507655 -0.13281925 0 21 0
-0.11503994 2.9214017 -0.067976534 0 22 0
-0.11866949 3.0135729 8.6099324e-05 0 23 0
-0.12085693 3.0691223 0.071589239 0 24 0
-0.12436306 3.1581595 0.14732182 0 25 0
-0.12800604 3.2506716 0.22761537 0 26 0
-0.13097101 3.3259664 0.31087914 0 27 0
-0.1349511 3.4270391 0.40103832 0 28 0
-0.13876735 3.5239515 0.49582651 0 29 0
-0.14319088 3.6362858 0.59830505 0 30 0
-0.15133072 3.8429945 0.72462016 0 31 0
-0.057644244 1.0730085 -0.63726306 0 0 0
-0.059547085 1.1084286 -0.62384629 0 1 0
-0.062886246 1.1705848 -0.62338394 0 2 0
-0.066736802 1.2422603 -0.62485862 0 3 0
-0.070532173 1.3129085 -0.6225087 0 4 0
-0.075136147 1.3986083 -0.62366384 0 5 0
-0.080265969 1.4940965 -0.62493467 0 6 0
-0.086096928 1.602636 -0.62687671 0 7 0
-0.092216954 1.716556 -0.6257301 0 8 0
-0.099392951 1.8501323 -0.62598652 0 9 0
-0.10743064 1.9997486 -0.62507319 0 10 0
-0.11543871 2.1488132 -0.61708909 0 11 0
-0.12021776 2.237772 -0.5865522 0 12 0
-0.12231676 2.2768435 -0.54042149 0 13 0
-0.12586789 2.3429453 -0.4987393 0 14 0
-0.13078472 2.4344687 -0.45919576 0 15 0
-0.13409649 2.4961152 -0.41083148 0 16 0
-0.13844693 2.5770955 -0.36269349 0 17 0
-0.14138088 2.6317091 -0.30802006 0 18 0
-0.1463097 2.7234557 -0.25457487 0 19 0
-0.15061323 2.8035631 -0.19627813 0 20 0
-0.15450872 2.8760753 -0.13408776 0 21 0
-0.15772566 2.9359562 -0.068360724 0 22 0
-0.1613476 3.003376 8.5865177e-05 0 23 0
-0.16606396 3.0911682 0.072151519 0 24 0
-0.17007095 3.1657553 0.14777458 0 25 0
-0.17479093 3.2536147 0.22797328 0 26 0
-0.17936087 3.3386807 0.31227553 0 27 0
-0.18525073 3.4483166 0.40379718 0 28 0
-0.18973856 3.5318546 0.49726966 0 29 0
-0.19747314 3.6758285 0.60521442 0 30 0
-0.2093495 3.896899 0.7352739 0 31 0
-0.071984306 1.0572262 -0.62843746 0 0 0
-0.076521203 1.1238592 -0.63308257 0 1 0
-0.079689413 1.1703904 -0.62382394 0 2 0
-0.083702989 1.2293373 -0.61889756 0 3 0
-0.089449637 1.3137378 -0.62344515 0 4 0
-0.095791548 1.4068807 -0.62789977 0 5 0
-0.10314328 1.5148549 -0.63416982 0 6 0
-0.1083286 1.5910112 -0.62287235 0 7 0
-0.11638592 1.7093482 -0.62364608 0 8 0
-0.12553912 1.8437804 -0.62438142 0 9 0
-0.13646585 2.0042601 -0.62702972 0 10 0
-0.14803663 2.1741991 -0.62492377 0 11 0
-0.15260898 2.2413526 -0.58800298 0 12 0
-0.15612273 2.2929587 -0.54472119 0 13 0
-0.16119029 2.3673854 -0.50438124 0 14 0
-0.16543692 2.4297552 -0.45870638 0 15 0
-0.16939016 2.4878161 -0.40982258 0 16 0
-0.17522837 2.5735614 -0.36251196 0 17 0
-0.18059845 2.6524312 -0.31071612 0 18 0
-0.18567453 2.7269833 -0.25512686 0 19 0
-0.19176088 2.8163726 -0.19734687 0 20 0
-0.19576202 2.8751371 -0.13416092 0 21 0
-0.20081604 2.9493647 -0.068732813 0 22 0
-0.20577265 3.0221622 8.6477616e-05 0 23 0
-0.21193734 3.1127024 0.07271751 0 24 0
-0.21740188 3.1929593 0.14917441 0 25 0
-0.2222431 3.2640619 0.22890474 0 26 0
-0.22908373 3.3645296 0.31496769 0 27 0
-0.23481908 3.4487643 0.40420175 0 28 0
-0.24129988 3.543947 0.49940735 0 29 0
-0.25123751 3.6898997 0.60806096 0 30 0
-0.26645318 3.9133711 0.73902577 0 31 0
-0.086770177 1.0519927 -0.62600064 0 0 0
-0.091206357 1.1057763 -0.62356782 0 1 0
-0.096641995 1.1716775 -0.62518322 0 2 0
-0.10243912 1.2419612 -0.62592697 0 3 0
-0.10891859 1.3205177 -0.62733817 0 4 0
-0.11535326 1.3985308 -0.62484604 0 5 0
-0.1232803 1.4946376 -0.62638068 0 6 0
-0.13151005 1.5944141 -0.62487751 0 7 0
-0.14040908 1.7023051 -0.621746 0 8 0
-0.1529514 1.8543669 -0.62864339 0 9 0
-0.16444238 1.9936823 -0.62439287 0 10 0
-0.17841087 2.1630347 -0.62238514 0 11 0
-0.18541701 2.2479765 -0.59037656 0 12 0
-0.18917483 2.2935359 -0.54544568 0 13 0
-0.19553828 2.3706858 -0.50562894 0 14 0
-0.20111214 2.4382627 -0.46080869 0 15 0
-0.20801695 2.5219758 -0.4158977 0 16 0
-0.21238697 2.5749574 -0.36309963 0 17 0
-0.21945585 2.6606598 -0.31201607 0 18 0
-0.22498877 2.7277405 -0.25547284 0 19 0
-0.23265176 2.8206458 -0.19785936 0 20 0
-0.23748372 2.8792279 -0.13449664 0 21 0
-0.24476442 2.9674983 -0.06922996 0 22 0
-0.24982345 3.0288334 8.6761946e-05 0 23 0
-0.25661159 3.1111321 0.072759181 0 24 0
-0.26384848 3.1988716 0.14961174 0 25 0
-0.27092621 3.2846811 0.23059906 0 26 0
-0.27855492 3.3771708 0.3164919 0 27 0
-0.2870841 3.4805777 0.40837014 0 28 0
-0.29626387 3.5918722 0.5067066 0 29 0
-0.30926415 3.7494862 0.61854637 0 30 0
-0.32647634 3.9581652 0.74829078 0 31 0
-0.10116158 1.0438756 -0.62196845 0 0 0
-0.10715734 1.1057453 -0.62435126 0 1 0
-0.11315204 1.167604 -0.62380999 0 2 0
-0.11988278 1.2370577 -0.62425655 0 3 0
-0.12804206 1.3212525 -0.62849355 0 4 0
-0.13589048 1.4022396 -0.62730783 0 5 0
-0.14247811 1.4702165 -0.61693764 0 6 0
-0.15408494 1.5899861 -0.62394255 0 7 0
-0.16578393 1.7107068 -0.62561727 0 8 0
-0.17786984 1.83542 -0.62301958 0 9 0
-0.1932272 1.993891 -0.62526041 0 10 0
-0.20963804 2.1632328 -0.62324166 0 11 0
-0.21678001 2.2369299 -0.58823007 0 12 0
-0.22522394 2.3240619 -0.5534153 0 13 0
-0.23009476 2.3743236 -0.50705528 0 14 0
-0.23671933 2.4426818 -0.46223685 0 15 0
-0.24338518 2.511466 -0.41469651 0 16 0
-0.25156188 2.5958405 -0.36651459 0 17 0
-0.2597917 2.6807632 -0.31477743 0 18 0
-0.2656787 2.7415104 -0.25709233 0 19 0
-0.2732515 2.8196533 -0.19804381 0 20 0
-0.28061405 2.8956265 -0.13543643 0 21 0
-0.28792566 2.9710743 -0.069402426 0 22 0
-0.29469815 3.0409589 8.7221175e-05 0 23 0
-0.30358213 3.1326318 0.073356099 0 24 0
-0.31193686 3.2188435 0.15073921 0 25 0
-0.31883642 3.2900393 0.23127194 0 26 0
-0.32987881 3.4039845 0.31941453 0 27 0
-0.33890751 3.4971509 0.4108417 0 28 0
-0.34845096 3.5956285 0.50788802 0 29 0
-0.36469311 3.7632296 0.62161106 0 30 0
-0.38877994 4.0117788 0.75940073 0 31 0
-0.11661828 1.0470536 -0.62479252 0 0 0
-0.1235466 1.1092592 -0.62726969 0 1 0
-0.13084646 1.1748009 -0.6285913 0 2 0
-0.13796104 1.2386789 -0.62600702 0 3 0
-0.14601271 1.3109705 -0.62453282 0 4 0
-0.15591386 1.3998678 -0.62718087 0 5 0
-0.16602324 1.4906344 -0.6264385 0 6 0
-0.1778871 1.5971538 -0.6276902 0 7 0
-0.19189352 1.7229099 -0.63101983 0 8 0
-0.20481665 1.8389399 -0.62514544 0 9 0
-0.22265932 1.9991398 -0.62784147 0 10 0
-0.24034661 2.1579447 -0.6226455 0 11 0
-0.25208169 2.2633078 -0.5960542 0 12 0
-0.25849006 2.3208449 -0.55347359 0 13 0
-0.26619196 2.3899963 -0.51116365 0 14 0
-0.27297992 2.4509416 -0.46449172 0 15 0
-0.28181913 2.5303044 -0.41843036 0 16 0
-0.29036024 2.6069906 -0.36863795 0 17 0
-0.29907763 2.6852591 -0.31577566 0 18 0
-0.30602121 2.747602 -0.25804791 0 19 0
-0.31558838 2.8335006 -0.19931325 0 20 0
-0.32232767 2.8940091 -0.13556267 0 21 0
-0.33120826 2.973743 -0.069568373 0 22 0
-0.34148023 3.0659697 8.8069712e-05 0 23 0
-0.35003212 3.1427526 0.073702872 0 24 0
-0.36064136 3.2380073 0.15186284 0 25 0
-0.37118316 3.3326566 0.23461714 0 26 0
-0.37997773 3.4116182 0.32060838 0 27 0
-0.39158896 3.5158691 0.4136568 0 28 0
-0.40399534 3.6272595 0.51312023 0 29 0
-0.42151949 3.7845998 0.62607348 0 30 0
-0.45031393 4.0431299 0.76647675 0 31 0
-0.13167252 1.0459188 -0.62517595 0 0 0
-0.13932614 1.1067141 -0.62689394 0 1 0
-0.14785887 1.1744925 -0.62949419 0 2 0
-0.15519653 1.232778 -0.62408346 0 3 0
-0.16531903 1.3131843 -0.62665051 0 4 0
-0.17528957 1.3923837 -0.62488788 0 5 0
-0.18763587 1.4904544 -0.62742722 0 6 0
-0.20014304 1.5898031 -0.62586308 0 7 0
-0.21410276 1.7006898 -0.62394011 0 8 0
-0.23082331 1.8335067 -0.62435764 0 9 0
-0.25145301 1.9973754 -0.6283533 0 10 0
-0.27373165 2.1743419 -0.62844282 0 11 0
-0.2845791 2.2605069 -0.5963282 0 12 0
-0.2925761 2.3240299 -0.55517495 0 13 0
-0.30146131 2.3946078 -0.51302028 0 14 0
-0.31140006 2.4735546 -0.46957386 0 15 0
-0.31980899 2.5403495 -0.42080539 0 16 0
-0.3320356 2.6374698 -0.37358159 0 17 0
-0.33571541 2.6666996 -0.31412604 0 18 0
-0.34664497 2.7535167 -0.25904286 0 19 0
-0.35787538 2.8427236 -0.20030183 0 20 0
-0.3664459 2.9108021 -0.136581 0 21 0
-0.37669539 2.9922173 -0.070119523 0 22 0
-0.3850939 3.0589297 8.8016801e-05 0 23 0
-0.39790642 3.1607037 0.074249811 0 24 0
-0.40936434 3.2517178 0.15276502 0 25 0
-0.42003843 3.3365057 0.23528726 0 26 0
-0.43231255 3.4340031 0.3232604 0 27 0
-0.44617224 3.5440953 0.41768631 0 28 0
-0.46042675 3.6573236 0.51825231 0 29 0
-0.48051846 3.8169186 0.6324929 0 30 0
-0.51625264 4.1007676 0.77872449 0 31 0
-0.14599822 1.0394419 -0.62248993 0 0 0
-0.15347779 1.0926931 -0.62013257 0 1 0
-0.1625074 1.1569799 -0.62129098 0 2 0
-0.17479482 1.2444608 -0.63119978 0 3 0
-0.18280768 1.3015088 -0.62226385 0 4 0
-0.19517122 1.3895316 -0.62479764 0 5 0
-0.20766054 1.4784501 -0.6235612 0 6 0
-0.22132188 1.5757126 -0.62149948 0 7 0
-0.23729406 1.6894274 -0.62099069 0 8 0
-0.25826675 1.8387436 -0.62733549 0 9 0
-0.28153417 2.0043972 -0.63176525 0 10 0
-0.30383086 2.1631396 -0.62639779 0 11 0
-0.31675965 2.2551868 -0.59605974 0 12 0
-0.32867959 2.3400514 -0.56006873 0 13 0
-0.33768713 2.4041812 -0.51605392 0 14 0
-0.34593236 2.4628835 -0.46844006 0 15 0
-0.35759914 2.5459456 -0.42253694 0 16 0
-0.36847451 2.6233733 -0.37229383 0 17 0
-0.37957758 2.7024224 -0.31894135 0 18 0
-0.39098951 2.7836702 -0.26237923 0 19 0
-0.39956784 2.844744 -0.2008266 0 20 0
-0.41013208 2.9199567 -0.13727194 0 21 0
-0.42471364 3.0237708 -0.070994131 0 22 0
-0.43366694 3.0875144 8.9008783e-05 0 23 0
-0.44673193 3.1805313 0.074858136 0 24 0
-0.45736277 3.256218 0.15326829 0 25 0
-0.47314975 3.3686142 0.23800473 0 26 0
-0.48552278 3.4567046 0.32601818 0 27 0
-0.50154954 3.5708077 0.42163736 0 28 0
-0.51733494 3.683193 0.52291381 0 29 0
-0.54054946 3.8484697 0.63893777 0 30 0
-0.58656561 4.1760845 0.79453999 0 31 0
-0.16268325 1.0490041 -0.6295464 0 0 0
-0.16960165 1.0936148 -0.6219697 0 1 0
-0.17855939 1.1513757 -0.61959052 0 2 0
-0.19186807 1.2371918 -0.6288414 0 3 0
-0.2011867 1.2972797 -0.62155503 0 4 0
-0.21540616 1.3889687 -0.62586677 0 5 0
-0.2279229 1.4696784 -0.62117392 0 6 0
-0.2456892 1.5842379 -0.626185 0 7 0
-0.26357129 1.6995442 -0.62603199 0 8 0
-0.28295392 1.824526 -0.62380266 0 9 0
-0.30579463 1.9718059 -0.62280864 0 10 0
-0.33435932 2.1559951 -0.6256507 0 11 0
-0.35262579 2.2737799 -0.6022464 0 12 0
-0.36237386 2.3366368 -0.56043547 0 13 0
-0.3746883 2.4160419 -0.51969779 0 14 0
-0.38568497 2.4869499 -0.47401893 0 15 0
-0.39838502 2.5688415 -0.42723948 0 16 0
-0.40696988 2.624198 -0.37319931 0 17 0
-0.41939247 2.7043006 -0.31983873 0 18 0
-0.43003228 2.7729075 -0.26191813 0 19 0
-0.4447844 2.8680313 -0.20289923 0 20 0
-0.45644319 2.9432087 -0.138658 0 21 0
-0.4669461 3.0109329 -0.070842385 0 22 0
-0.48251751 3.1113396 8.9885529e-05 0 23 0
-0.49598676 3.1981912 0.07543315 0 24 0
-0.51008606 3.2891054 0.15514407 0 25 0
-0.52306616 3.372803 0.2388052 0 26 0
-0.54087979 3.4876673 0.32963485 0 27 0
-0.55729878 3.5935395 0.42521983 0 28 0
-0.57743001 3.7233484 0.52973396 0 29 0
-0.6085192 3.923816 0.65282625 0 30 0
-0.65389216 4.2163873 0.80390632 0 31 0
-0.17753008 1.0456856 -0.62901545 0 0 0
-0.18675858 1.1000433 -0.62708181 0 1 0
-0.19736636 1.1625251 -0.62704635 0 2 0
-0.20919396 1.2321919 -0.62775767 0 3 0
-0.21894516 1.2896284 -0.61932719 0 4 0
-0.23437476 1.3805115 -0.62350374 0 5 0
-0.24713628 1.4556793 -0.61668903 0 6 0
-0.26738521 1.5749494 -0.6239624 0 7 0
-0.28839755 1.698716 -0.6271832 0 8 0
-0.31033328 1.8279216 -0.62641811 0 9 0
-0.33605483 1.9794265 -0.62667078 0 10 0
-0.36312547 2.1388776 -0.62212795 0 11 0
-0.38573053 2.2720256 -0.60318232 0 12 0
-0.39775673 2.3428621 -0.56323647 0 13 0
-0.40982896 2.4139698 -0.52046055 0 14 0
-0.42087799 2.4790509 -0.47361305 0 15 0
-0.43677709 2.5726995 -0.42887697 0 16 0
-0.44820905 2.6400359 -0.37632552 0 17 0
-0.45889211 2.7029612 -0.32042432 0 18 0
-0.47288305 2.7853703 -0.26370764 0 19 0
-0.48422435 2.8521729 -0.20224693 0 20 0
-0.50150967 2.9539864 -0.13948965 0 21 0
-0.51537925 3.035681 -0.0715909 0 22 0
-0.52875948 3.1144931 9.018604e-05 0 23 0
-0.54336959 3.2005496 0.075664468 0 24 0
-0.55936623 3.2947726 0.15577307 0 25 0
-0.57874691 3.4089286 0.24192476 0 26 0
-0.59520918 3.5058944 0.33212876 0 27 0
-0.61715692 3.6351707 0.43114713 0 28 0
-0.64243853 3.7840841 0.53962803 0 29 0
-0.67834586 3.995585 0.66631401 0 30 0
-0.72502655 4.2705431 0.81612688 0 31 0
-0.19037499 1.0316429 -0.62214369 0 0 0
-0.20351931 1.102872 -0.63029039 0 1 0
-0.21399783 1.1596552 -0.62708628 0 2 0
-0.22761858 1.2334661 -0.63000214 0 3 0
-0.23881915 1.294162 -0.62308222 0 4 0
-0.25459519 1.3796524 -0.62469763 0 5 0
-0.27145982 1.471042 -0.6247794 0 6 0
-0.28742805 1.5575739 -0.61864513 0 7 0
-0.3117786 1.6895297 -0.62537509 0 8 0
-0.3350862 1.8158336 -0.62385541 0 9 0
-0.3635619 1.9701436 -0.62531525 0 10 0
-0.39684346 2.1504965 -0.6270954 0 11 0
-0.42129654 2.2830079 -0.60763657 0 12 0
-0.43575355 2.3613505 -0.56912231 0 13 0
-0.44855842 2.4307401 -0.52540672 0 14 0
-0.46099928 2.4981573 -0.47847489 0 15 0
-0.4764902 2.5821025 -0.43153724 0 16 0
-0.48946488 2.6524124 -0.37904957 0 17 0
-0.50039572 2.7116466 -0.32227001 0 18 0
-0.51580995 2.7951763 -0.26530784 0 19 0
-0.53271765 2.8867993 -0.20522197 0 20 0
-0.54738241 2.9662678 -0.14042518 0 21 0
-0.56349051 3.0535576 -0.072195299 0 22 0
-0.58137548 3.1504762 9.1459595e-05 0 23 0
-0.59552771 3.2271674 0.076487422 0 24 0
-0.61223143 3.3176849 0.15725453 0 25 0
-0.63261563 3.4281468 0.24390626 0 26 0
-0.65216142 3.5340657 0.33564746 0 27 0
-0.67885286 3.6787066 0.43741831 0 28 0
-0.70542526 3.8227029 0.54651916 0 29 0
-0.75405562 4.0862308 0.68316025 0 30 0
-0.79843718 4.3267345 0.82896453 0 31 0
-0.20843688 1.0454471 -0.63220286 0 0 0
-0.21768656 1.0918404 -0.62570244 0 1 0
-0.22895551 1.1483614 -0.62268752 0 2 0
-0.24301031 1.2188555 -0.62425232 0 3 0
-0.25937977 1.300959 -0.62807775 0 4 0
-0.27270541 1.3677958 -0.62103277 0 5 0
-0.29053089 1.4572022 -0.62060398 0 6 0
-0.31357551 1.5727861 -0.62640578 0 7 0
-0.33728585 1.6917089 -0.62790442 0 8 0
-0.36171204 1.8142222 -0.62501651 0 9 0
-0.39101964 1.961219 -0.62419516 0 10 0
-0.42722791 2.142827 -0.62657803 0 11 0
-0.45573741 2.285821 -0.61005896 0 12 0
-0.4685747 2.3502083 -0.56799513 0 13 0
-0.4843021 2.4290915 -0.5264948 0 14 0
-0.50020468 2.5088534 -0.48184547 0 15 0
-0.51509869 2.5835567 -0.43296808 0 16 0
-0.52837473 2.6501443 -0.37976736 0 17 0
-0.54498839 2.7334731 -0.32575774 0 18 0
-0.55825573 2.8000174 -0.26649848 0 19 0
-0.5754137 2.8860757 -0.20573497 0 20 0
-0.59095365 2.9640186 -0.14070472 0 21 0
-0.60784149 3.048722 -0.072279267 0 22 0
-0.62785923 3.1491244 9.1671849e-05 0 23 0
-0.64748174 3.2475441 0.077182129 0 24 0
-0.66656864 3.3432772 0.15890354 0 25 0
-0.68741906 3.4478557 0.24598336 0 26 0
-0.71276873 3.575001 0.34046939 0 27 0
-0.73706937 3.6968844 0.44078907 0 28 0
-0.77731186 3.8987267 0.55892146 0 29 0
-0.82385737 4.1321831 0.69274336 0 30 0
-0.87897623 4.4086404 0.84698057 0 31 0
-0.22001524 1.0266653 -0.62268573 0 0 0
-0.23195155 1.0823641 -0.62211078 0 1 0
-0.24550526 1.1456103 -0.6230374 0 2 0
-0.26176578 1.2214874 -0.62745494 0 3 0
-0.27863595 1.3002093 -0.6295768 0 4 0
-0.2949774 1.376464 -0.62682134 0 5 0
-0.31160864 1.4540709 -0.62110639 0 6 0
-0.3357887 1.5669032 -0.6259129 0 7 0
-0.35940307 1.677096 -0.62432605 0 8 0
-0.38855606 1.8131336 -0.62649333 0 9 0
-0.42074633 1.9633443 -0.62672412 0 10 0
-0.45726582 2.1337564 -0.6257754 0 11 0
-0.48815873 2.2779133 -0.60975087 0 12 0
-0.50545341 2.3586161 -0.57171708 0 13 0
