# .PCD v0.7 - Point Cloud Data file format
VERSION 0.7
FIELDS x y z intensity ring time
SIZE 4 4 4 4 2 4
TYPE F F F F U F
COUNT 1 1 1 1 1 1
WIDTH 1205
HEIGHT 1
VIEWPOINT 0 0 0 1 0 0 0
POINTS 1205
DATA ascii
3.5700243 -0.54058278 -0.25242341 0 20 0
5.9524927 -0.90134263 -0.2802752 0 21 0
1.0442706 -0.14286953 -0.62507164 0 0 0
1.1156542 -0.15263571 -0.63284975 0 1 0
1.1675082 -0.15972999 -0.62663382 0 2 0
1.2347201 -0.16892543 -0.62594879 0 3 0
1.3145622 -0.17984886 -0.62819326 0 4 0
1.3914242 -0.19036454 -0.62533844 0 5 0
1.4773592 -0.20212154 -0.62279218 0 6 0
1.5827186 -0.21653607 -0.62395334 0 7 0
1.7006438 -0.23266973 -0.62480372 0 8 0
1.8260825 -0.24983133 -0.62270695 0 9 0
1.9868734 -0.27182958 -0.6259315 0 10 0
2.1578441 -0.29522055 -0.62455457 0 11 0
2.3688025 -0.32408237 -0.62577879 0 12 0
2.5503032 -0.34891394 -0.61008787 0 13 0
2.6504576 -0.36261633 -0.56863475 0 14 0
2.766427 -0.37848243 -0.52591318 0 15 0
2.8631778 -0.39171919 -0.4749507 0 16 0
2.957679 -0.40464815 -0.41952845 0 17 0
3.0828192 -0.4217689 -0.36365563 0 18 0
3.2079022 -0.43888187 -0.30221599 0 19 0
3.4049206 -0.4658365 -0.24025348 0 20 0
5.8913593 -0.80601299 -0.27682516 0 21 0
1.0483493 -0.12817103 -0.62635064 0 0 0
1.107867 -0.13544767 -0.62726855 0 1 0
1.1738602 -0.14351597 -0.62887615 0 2 0
1.2341908 -0.15089199 -0.62452149 0 3 0
1.3171257 -0.1610316 -0.62825245 0 4 0
1.3848381 -0.16931011 -0.62122571 0 5 0
1.4891156 -0.18205906 -0.62658548 0 6 0
1.5849068 -0.19377048 -0.62365872 0 7 0
1.6942579 -0.20713973 -0.62130463 0 8 0
1.8365004 -0.22453028 -0.62509954 0 9 0
1.997979 -0.24427263 -0.62826431 0 10 0
2.1504443 -0.26291302 -0.62125999 0 11 0
2.3610127 -0.28865707 -0.62256557 0 12 0
2.5169406 -0.30772081 -0.60099161 0 13 0
2.6178808 -0.32006171 -0.56060535 0 14 0
2.7204714 -0.33260444 -0.51621878 0 15 0
2.8306642 -0.34607658 -0.46868753 0 16 0
2.9211318 -0.35713717 -0.41357702 0 17 0
3.0378032 -0.3714014 -0.35768172 0 18 0
3.1364741 -0.3834649 -0.29493946 0 19 0
3.2829986 -0.40137893 -0.2312215 0 20 0
3.6160407 -0.44209662 -0.16959701 0 21 0
1.0420499 -0.11228903 -0.62156314 0 0 0
1.1039718 -0.1189616 -0.62403506 0 1 0
1.1667913 -0.1257309 -0.62406105 0 2 0
1.2301759 -0.13256107 -0.6214661 0 3 0
1.3041027 -0.14052726 -0.62101758 0 4 0
1.3990973 -0.15076369 -0.62659007 0 5 0
1.4912415 -0.16069293 -0.62644804 0 6 0
1.5842249 -0.17071263 -0.62236512 0 7 0
1.7119894 -0.18448026 -0.62677449 0 8 0
1.8379408 -0.19805251 -0.62456095 0 9 0
1.9957597 -0.21505873 -0.62653434 0 10 0
2.1605725 -0.2328186 -0.62315947 0 11 0
2.3419743 -0.25236604 -0.61652976 0 12 0
2.4833901 -0.26760474 -0.59200525 0 13 0
2.5899315 -0.27908537 -0.55370802 0 14 0
2.6924934 -0.29013723 -0.51006961 0 15 0
2.8005738 -0.30178374 -0.46294269 0 16 0
2.8885951 -0.31126872 -0.40829781 0 17 0
2.9911897 -0.3223241 -0.35161403 0 18 0
3.0967655 -0.33370072 -0.29072651 0 19 0
3.2277675 -0.34781721 -0.22695769 0 20 0
3.3987308 -0.36623985 -0.15914273 0 21 0
1.0573956 -0.098655492 -0.62980968 0 0 0
1.1236815 -0.10484001 -0.6342631 0 1 0
1.1572196 -0.10796913 -0.61805177 0 2 0
1.2442542 -0.11608949 -0.62767458 0 3 0
1.3196058 -0.12311984 -0.62749678 0 4 0
1.4037987 -0.13097507 -0.6277917 0 5 0
1.4825966 -0.13832694 -0.62192106 0 6 0
1.588738 -0.14822999 -0.62324071 0 7 0
1.7098256 -0.15952751 -0.62508231 0 8 0
1.8409635 -0.17176275 -0.62468874 0 9 0
1.995263 -0.18615896 -0.62547785 0 10 0
2.1844354 -0.20380881 -0.6291362 0 11 0
2.3251719 -0.21693963 -0.6112265 0 12 0
2.4693329 -0.23038989 -0.58780783 0 13 0
2.5478346 -0.23771414 -0.54392487 0 14 0
2.6582165 -0.24801283 -0.50285214 0 15 0
2.7596142 -0.25747329 -0.45551613 0 16 0
2.8472142 -0.2656464 -0.4018701 0 17 0
2.9522176 -0.27544326 -0.34653392 0 18 0
3.0610063 -0.2855933 -0.28695625 0 19 0
3.167089 -0.29549086 -0.22237098 0 20 0
3.2913134 -0.30708104 -0.15389141 0 21 0
3.6682184 -0.34224647 -0.085658126 0 22 0
1.0427686 -0.082255319 -0.62033278 0 0 0
1.1096929 -0.087534413 -0.62559587 0 1 0
1.1633844 -0.091769695 -0.62057912 0 2 0
1.2411795 -0.097906299 -0.6253525 0 3 0
1.3286368 -0.10480507 -0.63101321 0 4 0
1.4079641 -0.11106255 -0.62887919 0 5 0
1.4890798 -0.11746109 -0.62387145 0 6 0
1.6081557 -0.12685399 -0.63008124 0 7 0
1.7157499 -0.1353412 -0.62647569 0 8 0
1.8576353 -0.14653336 -0.62956971 0 9 0
2.0084169 -0.15842725 -0.62882608 0 10 0
2.1769457 -0.17172109 -0.62620705 0 11 0
2.3103898 -0.18224737 -0.60659277 0 12 0
2.4439335 -0.19278151 -0.58104527 0 13 0
2.5196831 -0.19875677 -0.5372526 0 14 0
2.6240144 -0.20698661 -0.49577096 0 15 0
2.7321177 -0.21551397 -0.45042208 0 16 0
2.8387227 -0.22392315 -0.40017816 0 17 0
2.9281127 -0.23097439 -0.34328127 0 18 0
3.0005291 -0.23668671 -0.28094041 0 19 0
3.1073251 -0.24511096 -0.21790612 0 20 0
3.2249653 -0.25439063 -0.15060352 0 21 0
3.392009 -0.26756728 -0.079110704 0 22 0
1.0467266 -0.067509025 -0.62204874 0 0 0
1.1199315 -0.072230406 -0.6307205 0 1 0
1.1774714 -0.075941458 -0.62744939 0 2 0
1.2411199 -0.08004649 -0.62468117 0 3 0
1.3245716 -0.085428745 -0.6284374 0 4 0
1.3873374 -0.089476854 -0.61903065 0 5 0
1.4891078 -0.096040569 -0.62324339 0 6 0
1.5972185 -0.10301321 -0.62515426 0 7 0
1.727273 -0.11140112 -0.63003641 0 8 0
1.8466523 -0.11910053 -0.62520564 0 9 0
1.9875695 -0.12818904 -0.62166065 0 10 0
2.1698759 -0.13994697 -0.62353331 0 11 0
2.2975986 -0.14818449 -0.60261583 0 12 0
2.4221215 -0.15621564 -0.57526898 0 13 0
2.5004122 -0.16126503 -0.53259689 0 14 0
2.58796 -0.16691147 -0.48845756 0 15 0
2.7019033 -0.17426027 -0.44498408 0 16 0
2.7882466 -0.17982902 -0.39265946 0 17 0
2.8723426 -0.18525282 -0.33639765 0 18 0
2.9602401 -0.19092181 -0.27688393 0 19 0
3.0634599 -0.19757901 -0.2146097 0 20 0
3.1592247 -0.20375539 -0.14738218 0 21 0
3.2923758 -0.21234301 -0.07670825 0 22 0
3.555784 -0.22933164 0.00010172281 0 23 0
1.0540426 -0.052845091 -0.62588286 0 0 0
1.1254729 -0.056426298 -0.63332152 0 1 0
1.1704369 -0.058680598 -0.62318945 0 2 0
1.2396894 -0.062152613 -0.62344956 0 3 0
1.3138438 -0.065870397 -0.62283653 0 4 0
1.3967112 -0.070025004 -0.62270224 0 5 0
1.5009142 -0.075249285 -0.62766969 0 6 0
1.5951253 -0.079972617 -0.62382305 0 7 0
1.7303085 -0.086750112 -0.63062614 0 8 0
1.8624595 -0.093375586 -0.63004035 0 9 0
2.0096779 -0.10075647 -0.62806016 0 10 0
2.188807 -0.10973722 -0.62845761 0 11 0
2.2708843 -0.11385222 -0.59512079 0 12 0
2.3881838 -0.11973311 -0.56674349 0 13 0
2.4798839 -0.12433056 -0.52779114 0 14 0
2.5539167 -0.12804224 -0.48163688 0 15 0
2.6571403 -0.13321741 -0.43725312 0 16 0
2.7666888 -0.13870969 -0.38930404 0 17 0
2.8332908 -0.14204884 -0.33155197 0 18 0
2.9034896 -0.14556828 -0.2713531 0 19 0
2.9989007 -0.15035179 -0.20991476 0 20 0
3.0804465 -0.15444013 -0.14358924 0 21 0
3.2042441 -0.16064681 -0.074593678 0 22 0
3.3529108 -0.16810031 9.584042e-05 0 23 0
1.0528959 -0.037689973 -0.62481767 0 0 0
1.1166341 -0.039971579 -0.62796158 0 1 0
1.1748129 -0.042054173 -0.62513489 0 2 0
1.2421719 -0.044465385 -0.62431401 0 3 0
1.3237331 -0.047384992 -0.62713879 0 4 0
1.4050543 -0.050296009 -0.62603676 0 5 0
1.5053314 -0.053885575 -0.62912995 0 6 0
1.5958307 -0.057125129 -0.62371522 0 7 0
1.7205234 -0.06158869 -0.62667435 0 8 0
1.843282 -0.065983012 -0.6231696 0 9 0
2.0121188 -0.072026782 -0.62843651 0 10 0
2.1914785 -0.078447223 -0.62883782 0 11 0
2.2656355 -0.08110179 -0.59338027 0 12 0
2.3532073 -0.084236555 -0.55809987 0 13 0
2.4368687 -0.087231338 -0.51831746 0 14 0
2.5203457 -0.09021952 -0.47501364 0 15 0
2.6156781 -0.09363208 -0.43016556 0 16 0
2.7104428 -0.097024329 -0.38115516 0 17 0
2.7760191 -0.099371724 -0.32465032 0 18 0
2.8580832 -0.10230933 -0.26694533 0 19 0
2.9447887 -0.10541309 -0.20600036 0 20 0
3.0383782 -0.10876326 -0.14154124 0 21 0
3.142978 -0.11250756 -0.073122442 0 22 0
3.252332 -0.11642206 9.2908303e-05 0 23 0
3.4836493 -0.12470239 0.081247412 0 24 0
1.0616181 -0.022795089 -0.62973553 0 0 0
1.1119124 -0.023875007 -0.62504995 0 1 0
1.1752975 -0.025236016 -0.62513649 0 2 0
1.2422818 -0.026674302 -0.62411344 0 3 0
1.3333941 -0.028630666 -0.63145697 0 4 0
1.3992686 -0.030045129 -0.62320346 0 5 0
1.5037652 -0.032288883 -0.62821788 0 6 0
1.6032916 -0.034425914 -0.62637454 0 7 0
1.7087309 -0.036689911 -0.62212414 0 8 0
1.8478814 -0.039677754 -0.62446856 0 9 0
2.0079081 -0.043113846 -0.62686437 0 10 0
2.1726942 -0.046652142 -0.62319237 0 11 0
2.2522104 -0.048359517 -0.58962256 0 12 0
2.3264296 -0.049953151 -0.55152303 0 13 0
2.4260828 -0.052092906 -0.51581186 0 14 0
2.4925544 -0.053520188 -0.4695833 0 15 0
2.5641594 -0.055057693 -0.42152023 0 16 0
2.6637683 -0.057196494 -0.37443808 0 17 0
2.7280819 -0.058577437 -0.31891343 0 18 0
2.7970774 -0.06005891 -0.26114035 0 19 0
2.8865948 -0.06198103 -0.2018467 0 20 0
2.9803891 -0.063994981 -0.13878296 0 21 0
3.0831513 -0.066201501 -0.071701169 0 22 0
3.1914136 -0.068526104 9.1130707e-05 0 23 0
3.3201821 -0.071291029 0.077403225 0 24 0
3.7325032 -0.080144398 0.17401907 0 25 0
1.053787 -0.0075412826 -0.62496221 0 0 0
1.1194056 -0.0080108745 -0.62913334 0 1 0
1.1840559 -0.0084735341 -0.62966603 0 2 0
1.238368 -0.0088622123 -0.62201977 0 3 0
1.3360276 -0.0095610991 -0.63257456 0 4 0
1.4071391 -0.010069999 -0.62658036 0 5 0
1.4898533 -0.010661932 -0.62227845 0 6 0
1.593798 -0.011405798 -0.62253797 0 7 0
1.702425 -0.012183173 -0.61970133 0 8 0
1.8511679 -0.013247631 -0.62545109 0 9 0
2.0069551 -0.0143625 -0.62643856 0 10 0
2.1305974 -0.015247329 -0.61099255 0 11 0
2.2380857 -0.016016556 -0.5858047 0 12 0
2.3034067 -0.016484017 -0.54595315 0 13 0
2.3824339 -0.017049564 -0.50642788 0 14 0
2.4808831 -0.017754102 -0.46728876 0 15 0
2.5360813 -0.018149119 -0.41681907 0 16 0
2.6209569 -0.01875652 -0.36834472 0 17 0
2.6972325 -0.019302377 -0.31524256 0 18 0
2.7701938 -0.019824514 -0.25857747 0 19 0
2.8363571 -0.020298002 -0.19829318 0 20 0
2.9143727 -0.020856312 -0.13568109 0 21 0
3.0149117 -0.021575805 -0.070099838 0 22 0
3.1100767 -0.02225684 8.8789944e-05 0 23 0
3.2373595 -0.023167722 0.075456925 0 24 0
3.3656497 -0.024085814 0.15688327 0 25 0
1.0634747 0.0076106116 -0.63070762 0 0 0
1.0996907 0.0078697866 -0.61805308 0 1 0
1.1813982 0.0084545147 -0.62825269 0 2 0
1.250169 0.0089466637 -0.62794727 0 3 0
1.3274964 0.0095000472 -0.62853527 0 4 0
1.3909061 0.0099538295 -0.61935204 0 5 0
1.5027425 0.010754172 -0.627662 0 6 0
1.5963529 0.011424081 -0.62353593 0 7 0
1.724143 0.012338595 -0.62760687 0 8 0
1.8454528 0.013206731 -0.62352008 0 9 0
1.9902188 0.014242728 -0.62121451 0 10 0
2.0873039 0.014937505 -0.5985772 0 11 0
2.2127249 0.015835065 -0.57916671 0 12 0
2.2841742 0.01634638 -0.54139465 0 13 0
2.3670003 0.016939115 -0.50314724 0 14 0
2.4280651 0.017376116 -0.45734015 0 15 0
2.5138228 0.017989831 -0.41316077 0 16 0
2.5699575 0.01839155 -0.36117736 0 17 0
2.6715858 0.019118838 -0.31224504 0 18 0
2.713773 0.019420747 -0.25331098 0 19 0
2.7915919 0.019977646 -0.19516358 0 20 0
2.8696401 0.020536188 -0.13359852 0 21 0
2.9458401 0.021081503 -0.068493851 0 22 0
3.0575459 0.021880912 8.7290238e-05 0 23 0
3.158988 0.022606866 0.073630229 0 24 0
3.2791007 0.023466436 0.15284894 0 25 0
3.501116 0.025055259 0.24496818 0 26 0
1.0458421 0.022456346 -0.62037742 0 0 0
1.1216341 0.024083754 -0.63051492 0 1 0
1.168259 0.025084885 -0.62139273 0 2 0
1.2376927 0.026575767 -0.62180793 0 3 0
1.3188902 0.02831924 -0.62458837 0 4 0
1.4014417 0.030091789 -0.62417132 0 5 0
1.4980493 0.032166149 -0.62582994 0 6 0
1.5938817 0.034223866 -0.62269825 0 7 0
1.7139529 0.036802039 -0.6240254 0 8 0
1.8481603 0.039683741 -0.6245628 0 9 0
1.9915214 0.042761993 -0.62174851 0 10 0
2.0526037 0.044073552 -0.58874685 0 11 0
2.1715465 0.046627499 -0.56850493 0 12 0
2.2537632 0.048392855 -0.5342961 0 13 0
2.3342981 0.050122105 -0.49629745 0 14 0
2.3927164 0.051376462 -0.45077434 0 15 0
2.4771416 0.05318924 -0.40721542 0 16 0
2.5439565 0.054623894 -0.35759649 0 17 0
2.6234896 0.056331631 -0.30668658 0 18 0
2.6842287 0.057635821 -0.25060457 0 19 0
2.7363257 0.058754452 -0.19133908 0 20 0
2.8169432 0.060485471 -0.13117205 0 21 0
2.8838427 0.061921939 -0.067066088 0 22 0
2.9764526 0.063910455 8.4992505e-05 0 23 0
3.0850384 0.066242017 0.071921341 0 24 0
3.1723692 0.068117186 0.14790416 0 25 0
3.3267522 0.071432099 0.23281586 0 26 0
3.5830796 0.076935969 0.33472937 0 27 0
1.0605817 0.037965097 -0.62937862 0 0 0
1.1103199 0.039745547 -0.62441057 0 1 0
1.1750392 0.042062271 -0.62525529 0 2 0
1.2443227 0.044542376 -0.625395 0 3 0
1.3288742 0.047569029 -0.62957454 0 4 0
1.3865798 0.04963468 -0.61780518 0 5 0
1.4994252 0.05367415 -0.62666148 0 6 0
1.6069221 0.057522167 -0.62805021 0 7 0
1.7099943 0.061211787 -0.62283933 0 8 0
1.8514655 0.066275954 -0.62593621 0 9 0
1.9568909 0.070049815 -0.6111874 0 10 0
2.0475197 0.073294014 -0.58752936 0 11 0
2.1072619 0.075432569 -0.55190152 0 12 0
2.2325909 0.079918906 -0.52949375 0 13 0
2.3038793 0.082470782 -0.49003083 0 14 0
2.3753166 0.085027985 -0.44767979 0 15 0
2.4368055 0.087229073 -0.40074879 0 16 0
2.5114589 0.089901403 -0.35317308 0 17 0
2.5916562 0.092772186 -0.30308944 0 18 0
2.6358302 0.094353452 -0.24618687 0 19 0
2.6916494 0.096351594 -0.18829219 0 20 0
2.7553699 0.098632559 -0.12835746 0 21 0
2.8308642 0.10133499 -0.065861009 0 22 0
2.9172902 0.10442874 8.3337276e-05 0 23 0
3.0100787 0.10775024 0.070202567 0 24 0
3.1294477 0.11202323 0.14596285 0 25 0
3.2343495 0.11577835 0.22644204 0 26 0
3.3889539 0.12131264 0.31672403 0 27 0
1.0633023 0.053309336 -0.63138127 0 0 0
1.1219007 0.056247201 -0.63131142 0 1 0
1.1762885 0.058973972 -0.6263051 0 2 0
1.2489147 0.062615134 -0.62808913 0 3 0
1.3240571 0.066382438 -0.62767816 0 4 0
1.4080192 0.070591934 -0.62774372 0 5 0
1.4988853 0.075147562 -0.62682116 0 6 0
1.5907197 0.079751745 -0.62210011 0 7 0
1.717822 0.086124092 -0.62607533 0 8 0
1.861827 0.093343876 -0.62982643 0 9 0
1.9551166 0.098021016 -0.61100882 0 10 0
2.0515771 0.10285712 -0.58905572 0 11 0
2.0928206 0.10492489 -0.54845643 0 12 0
2.2184086 0.11122131 -0.52645385 0 13 0
2.2710755 0.11386181 -0.48335066 0 14 0
2.3324783 0.11694028 -0.43987638 0 15 0
2.3998828 0.12031965 -0.3949194 0 16 0
2.4724624 0.12395846 -0.34790307 0 17 0
2.5258629 0.12663575 -0.29557675 0 18 0
2.5787761 0.12928857 -0.24100618 0 19 0
2.6508625 0.13290267 -0.18555304 0 20 0
2.7025821 0.13549566 -0.1259758 0 21 0
2.7751737 0.13913509 -0.064605065 0 22 0
2.8732176 0.14405058 8.2128754e-05 0 23 0
2.9412217 0.14746001 0.068638846 0 24 0
3.0382559 0.15232489 0.14179668 0 25 0
3.1536441 0.15810995 0.22092754 0 26 0
3.2990687 0.16540089 0.30851322 0 27 0
3.4746349 0.17420302 0.40680346 0 28 0
1.0523132 0.067869335 -0.62536877 0 0 0
1.1096206 0.071565397 -0.62491357 0 1 0
1.1757157 0.075828232 -0.62651384 0 2 0
1.2403697 0.079998113 -0.62430364 0 3 0
1.310087 0.084494546 -0.62156516 0 4 0
1.3945699 0.089943312 -0.62225777 0 5 0
1.5032105 0.096950129 -0.62914586 0 6 0
1.582808 0.1020838 -0.61951393 0 7 0
1.7114995 0.1103838 -0.6242829 0 8 0
1.8457837 0.11904451 -0.62491161 0 9 0
1.9626852 0.12658413 -0.61387753 0 10 0
2.0381706 0.13145258 -0.58568662 0 11 0
2.1002488 0.13545634 -0.55085486 0 12 0
2.180414 0.14062662 -0.5178619 0 13 0
2.249665 0.14509299 -0.47918683 0 14 0
2.3024123 0.14849494 -0.43456259 0 15 0
2.3829131 0.15368688 -0.39244869 0 16 0
2.4221795 0.15621938 -0.34110743 0 17 0
2.4850285 0.16027284 -0.2910369 0 18 0
2.5449009 0.16413434 -0.23803546 0 19 0
2.6092269 0.16828308 -0.18278855 0 20 0
2.6694739 0.17216872 -0.12453464 0 21 0
2.7191589 0.17537318 -0.06335301 0 22 0
2.7922125 0.18008479 7.9878781e-05 0 23 0
2.8805721 0.18578358 0.067278638 0 24 0
2.9786751 0.19211076 0.1391301 0 25 0
3.0745027 0.1982912 0.21556005 0 26 0
3.199142 0.20632987 0.29941407 0 27 0
3.3302846 0.21478796 0.39022318 0 28 0
3.5619643 0.22973022 0.5018273 0 29 0
1.0567825 0.083360754 -0.62866944 0 0 0
1.1098197 0.087544411 -0.62566727 0 1 0
1.1634707 0.091776498 -0.6206252 0 2 0
1.247631 0.098415196 -0.62860298 0 3 0
1.3134947 0.10361063 -0.62382168 0 4 0
1.4031119 0.1106798 -0.62671191 0 5 0
1.4945779 0.11789478 -0.62617493 0 6 0
1.6002356 0.12622923 -0.6269781 0 7 0
1.7156702 0.13533491 -0.6264466 0 8 0
1.8403519 0.14517 -0.62371218 0 9 0
1.9513755 0.15392773 -0.61096662 0 10 0
2.0429914 0.16115455 -0.58767462 0 11 0
2.104027 0.16596913 -0.55241227 0 12 0
2.1582925 0.1702497 -0.51313418 0 13 0
2.2022176 0.17371458 -0.46956187 0 14 0
2.2644742 0.17862546 -0.4278408 0 15 0
2.3445837 0.18494466 -0.38653252 0 16 0
2.37902 0.18766104 -0.33537331 0 17 0
2.4373786 0.19226445 -0.28574938 0 18 0
2.5029364 0.19743577 -0.23435065 0 19 0
2.5575385 0.20174287 -0.17935145 0 20 0
2.6301701 0.20747218 -0.12282702 0 21 0
2.6892889 0.21213555 -0.062721394 0 22 0
2.7553105 0.21734346 7.8904013e-05 0 23 0
2.8290393 0.22315931 0.066142872 0 24 0
2.9159486 0.23001486 0.13634004 0 25 0
3.0094235 0.23738831 0.21121381 0 26 0
3.1133254 0.24558426 0.29168141 0 27 0
3.2222016 0.25417259 0.37794623 0 28 0
3.3964951 0.26792115 0.47900641 0 29 0
3.6264298 0.28605878 0.59807336 0 30 0
1.0365616 0.096711673 -0.61740047 0 0 0
1.1065234 0.10323914 -0.62457812 0 1 0
1.1712559 0.10927872 -0.6255483 0 2 0
1.2389175 0.11559157 -0.62498242 0 3 0
1.3242419 0.12355237 -0.62970126 0 4 0
1.3980614 0.13043977 -0.62522596 0 5 0
1.4864448 0.13868599 -0.62353528 0 6 0
1.5914532 0.14848331 -0.62430584 0 7 0
1.710834 0.1596216 -0.62545091 0 8 0
1.8383057 0.17151478 -0.62378687 0 9 0
1.9539337 0.18230291 -0.61252189 0 10 0
2.0306592 0.18946144 -0.58484733 0 11 0
2.0849011 0.19452223 -0.5480656 0 12 0
2.1390088 0.19957049 -0.50917643 0 13 0
2.1806347 0.20345423 -0.46553317 0 14 0
2.2360914 0.20862836 -0.42299917 0 15 0
2.2971499 0.21432514 -0.37917936 0 16 0
2.3540413 0.21963315 -0.3322612 0 17 0
2.3923304 0.22320552 -0.28081387 0 18 0
2.4668574 0.23015893 -0.23125733 0 19 0
2.5215592 0.23526263 -0.17704636 0 20 0
2.5798776 0.24070376 -0.12062693 0 21 0
2.6323628 0.24560066 -0.061469421 0 22 0
2.7075536 0.25261599 7.7631994e-05 0 23 0
2.7703297 0.25847304 0.064850092 0 24 0
2.858001 0.26665279 0.13379535 0 25 0
2.9421659 0.27450544 0.20674798 0 26 0
3.0447662 0.28407809 0.28560993 0 27 0
3.1596382 0.29479569 0.37106481 0 28 0
3.2868624 0.30666578 0.46411645 0 29 0
3.4563668 0.32248062 0.5707292 0 30 0
1.0484799 0.11298192 -0.62539846 0 0 0
1.1125146 0.11988216 -0.62886405 0 1 0
1.1675936 0.12581734 -0.62449014 0 2 0
1.2371043 0.13330767 -0.62496626 0 3 0
1.3160862 0.14181858 -0.62672418 0 4 0
1.4067907 0.1515927 -0.63003558 0 5 0
1.4920738 0.16078262 -0.62679768 0 6 0
1.5869844 0.17100999 -0.62344921 0 7 0
1.6956425 0.18271875 -0.62078971 0 8 0
1.8332617 0.1975483 -0.62297094 0 9 0
1.9187047 0.20675546 -0.60234427 0 10 0
2.0019274 0.21572334 -0.57740247 0 11 0
2.0602882 0.22201216 -0.54237527 0 12 0
2.0981922 0.22609663 -0.50017947 0 13 0
2.1596031 0.23271415 -0.46170706 0 14 0
2.2011542 0.23719159 -0.41698968 0 15 0
2.2443781 0.2418493 -0.37100199 0 16 0
2.3285449 0.25091892 -0.32913569 0 17 0
2.3664656 0.25500518 -0.2781778 0 18 0
2.4241626 0.26122248 -0.22758208 0 19 0
2.4688797 0.2660411 -0.17359716 0 20 0
2.5270941 0.27231416 -0.11832907 0 21 0
2.5861194 0.2786746 -0.060476519 0 22 0
2.6672223 0.28741407 7.6585711e-05 0 23 0
2.7306337 0.29424715 0.064012893 0 24 0
2.795985 0.30128926 0.13108057 0 25 0
2.8731158 0.30960071 0.20218648 0 26 0
2.9689858 0.31993145 0.27890244 0 27 0
3.0772903 0.3316021 0.36191428 0 28 0
3.1873269 0.3434594 0.45070967 0 29 0
3.3414617 0.36006865 0.55255002 0 30 0
3.5822289 0.38601318 0.67883533 0 31 0
1.0482332 0.12815684 -0.62628132 0 0 0
1.1033905 0.13490036 -0.62473392 0 1 0
1.1681414 0.1428168 -0.62581235 0 2 0
1.2303792 0.15042599 -0.62259281 0 3 0
1.3111755 0.16030413 -0.62541425 0 4 0
1.3941869 0.17045309 -0.6254195 0 5 0
1.4978484 0.18312673 -0.63026005 0 6 0
1.5942525 0.19491307 -0.6273362 0 7 0
1.7183365 0.21008357 -0.63013452 0 8 0
1.8365421 0.22453538 -0.62511379 0 9 0
1.9073 0.23318622 -0.59975028 0 10 0
1.9842373 0.24259257 -0.57324302 0 11 0
2.033891 0.24866322 -0.53630823 0 12 0
2.0708394 0.2531805 -0.49447215 0 13 0
2.127975 0.26016593 -0.45569465 0 14 0
2.1685176 0.26512265 -0.41148371 0 15 0
2.2353218 0.2732901 -0.37011364 0 16 0
2.2698412 0.27751046 -0.32136658 0 17 0
2.333405 0.28528178 -0.27474338 0 18 0
2.3777709 0.29070592 -0.22359453 0 19 0
2.4354813 0.29776159 -0.17153089 0 20 0
2.4839993 0.30369338 -0.11650279 0 21 0
2.5306435 0.30939609 -0.0592767 0 22 0
2.6185691 0.32014591 7.5312557e-05 0 23 0
2.6818895 0.32788742 0.062973775 0 24 0
2.7677932 0.33839002 0.12997265 0 25 0
2.8143837 0.34408614 0.19837965 0 26 0
2.9222889 0.35727865 0.27496806 0 27 0
2.996444 0.36634481 0.35298666 0 28 0
3.1183991 0.38125506 0.44168928 0 29 0
3.2454629 0.39678982 0.53755963 0 30 0
3.4222965 0.4184095 0.64959639 0 31 0
1.0417619 0.1425263 -0.62356997 0 0 0
1.1048774 0.15116128 -0.62673664 0 1 0
1.1704018 0.16012588 -0.62818688 0 2 0
1.234663 0.16891763 -0.62591982 0 3 0
1.3045788 0.17848298 -0.62342244 0 4 0
1.3945482 0.19079195 -0.62674242 0 5 0
1.4839053 0.20301713 -0.62555176 0 6 0
1.5717617 0.21503703 -0.61963385 0 7 0
1.69776 0.23227519 -0.62374419 0 8 0
1.811669 0.24785939 -0.61779183 0 9 0
1.8694206 0.25576055 -0.58892995 0 10 0
1.9425285 0.26576263 -0.56223482 0 11 0
1.9863797 0.27176204 -0.52475214 0 12 0
2.0612273 0.28200215 -0.49309033 0 13 0
2.1108932 0.28879708 -0.45287552 0 14 0
2.1537979 0.29466698 -0.40944895 0 15 0
2.1986721 0.30080634 -0.36472091 0 16 0
2.261914 0.30945864 -0.32083851 0 17 0
2.3080909 0.31577626 -0.2722671 0 18 0
2.3475962 0.32118106 -0.2211667 0 19 0
2.3934669 0.32745677 -0.16888463 0 20 0
2.4506893 0.33528551 -0.1151538 0 21 0
2.5109921 0.34353569 -0.058925536 0 22 0
2.5876644 0.35402542 7.4561809e-05 0 23 0
2.6601138 0.36393744 0.062578365 0 24 0
2.7138369 0.37128747 0.1276754 0 25 0
2.7846744 0.38097894 0.19664976 0 26 0
2.8430295 0.38896266 0.26800665 0 27 0
2.928834 0.40070179 0.3456623 0 28 0
3.0390456 0.41578016 0.43124843 0 29 0
3.157604 0.43200046 0.5239777 0 30 0
3.3070459 0.45244598 0.62888515 0 31 0
1.0339762 0.15656748 -0.62018752 0 0 0
1.091481 0.16527502 -0.62041599 0 1 0
1.1685907 0.17695118 -0.62850988 0 2 0
1.2210284 0.18489146 -0.62028581 0 3 0
1.3160285 0.19927661 -0.63019246 0 4 0
1.3936894 0.21103624 -0.62764978 0 5 0
1.4790322 0.22395909 -0.62478483 0 6 0
1.5841943 0.23988301 -0.62582457 0 7 0
1.6962758 0.25685471 -0.62448567 0 8 0
1.7874526 0.27066094 -0.6107924 0 9 0
1.8377303 0.27827412 -0.58014178 0 10 0
1.9170649 0.2902872 -0.55601043 0 11 0
1.9750552 0.29906824 -0.52283776 0 12 0
2.0081108 0.3040736 -0.48137552 0 13 0
2.0932271 0.31696215 -0.45001259 0 14 0
2.1242239 0.32165575 -0.40466058 0 15 0
2.1710641 0.32874843 -0.36088485 0 16 0
2.2210655 0.33631977 -0.31569487 0 17 0
2.2612281 0.34240133 -0.26728982 0 18 0
2.3197157 0.35125768 -0.21899131 0 19 0
2.3706522 0.35897058 -0.16762018 0 20 0
2.4160845 0.36585009 -0.11376219 0 21 0
2.4686663 0.3738122 -0.058051895 0 22 0
2.5371137 0.38417667 7.3256175e-05 0 23 0
2.5986726 0.39349809 0.061259206 0 24 0
2.6650822 0.40355399 0.12564057 0 25 0
2.7474213 0.416022 0.19441959 0 26 0
2.803299 0.42448318 0.26480699 0 27 0
2.8618474 0.43334872 0.33845389 0 28 0
2.9666686 0.44922104 0.42184713 0 29 0
3.0668945 0.46439752 0.50997603 0 30 0
3.2251098 0.48835489 0.61457008 0 31 0
1.0987916 0.18250509 -0.62599218 0 1 0
1.155871 0.19198576 -0.62308288 0 2 0
1.236869 0.20543921 -0.62976211 0 3 0
1.3060849 0.21693569 -0.62685353 0 4 0
1.4028535 0.23300859 -0.63321394 0 5 0
1.4747741 0.24495433 -0.62440324 0 6 0
1.5755607 0.26169461 -0.62382978 0 7 0
1.6677169 0.27700138 -0.61536831 0 8 0
1.7490736 0.29051444 -0.59903747 0 9 0
1.8110262 0.30080453 -0.57301223 0 10 0
1.8937498 0.31454462 -0.55049771 0 11 0
1.9471668 0.32341698 -0.51662767 0 12 0
1.9930161 0.33103237 -0.4788439 0 13 0
2.0675573 0.34341335 -0.44550508 0 14 0
2.1002684 0.34884655 -0.40100721 0 15 0
2.1485441 0.35686496 -0.35795385 0 16 0
2.1989934 0.36524439 -0.3132686 0 17 0
2.2400301 0.37206042 -0.2653864 0 18 0
2.2841282 0.37938496 -0.2161222 0 19 0
2.3344619 0.3877452 -0.16543677 0 20 0
2.353261 0.39086765 -0.11105617 0 21 0
2.4347913 0.40440953 -0.057385549 0 22 0
2.4918156 0.41388103 7.2111907e-05 0 23 0
2.5634387 0.42577735 0.060566083 0 24 0
2.6216214 0.43544129 0.12387283 0 25 0
2.6892631 0.44667631 0.19073695 0 26 0
2.7504468 0.45683867 0.26040542 0 27 0
2.8410003 0.4718793 0.33675274 0 28 0
2.9057395 0.48263222 0.41412318 0 29 0
2.9979453 0.49794725 0.49964482 0 30 0
3.1055896 0.51582658 0.59314078 0 31 0
1.1018438 0.19925696 -0.62929147 0 1 0
1.1565894 0.20915714 -0.62501997 0 2 0
1.2295188 0.22234564 -0.62757581 0 3 0
1.2913622 0.23352937 -0.62132806 0 4 0
1.3817657 0.24987791 -0.62524581 0 5 0
1.4694571 0.26573598 -0.62369859 0 6 0
1.5768273 0.28515276 -0.62588322 0 7 0
1.6515884 0.29867253 -0.61093193 0 8 0
1.7273403 0.31237146 -0.59306461 0 9 0
1.8065574 0.32669705 -0.57301921 0 10 0
1.8589396 0.33616984 -0.54172188 0 11 0
1.9283998 0.34873098 -0.5129202 0 12 0
1.9722047 0.35665265 -0.4750216 0 13 0
2.0189452 0.36510518 -0.43611184 0 14 0
2.0894527 0.37785572 -0.39993384 0 15 0
2.1145275 0.38239023 -0.35316229 0 16 0
2.1641095 0.39135665 -0.30906543 0 17 0
2.2016644 0.39814803 -0.26148945 0 18 0
2.2623336 0.40911946 -0.21459211 0 19 0
2.2970481 0.4153972 -0.16319001 0 20 0
2.3429625 0.4237003 -0.11084501 0 21 0
2.3916445 0.43250394 -0.056508739 0 22 0
2.457792 0.44446602 7.1304086e-05 0 23 0
2.5312276 0.45774609 0.059953697 0 24 0
2.5878918 0.46799323 0.12258304 0 25 0
2.655324 0.48018762 0.18879795 0 26 0
2.7158203 0.49112779 0.25776625 0 27 0
2.7851107 0.50365824 0.33094859 0 28 0
2.8501835 0.51542598 0.40721512 0 29 0
2.9426656 0.53215033 0.49165088 0 30 0
3.0326385 0.54842103 0.58064753 0 31 0
1.0940387 0.21405904 -0.62651944 0 1 0
1.1647217 0.22788885 -0.63111269 0 2 0
1.2239605 0.23947947 -0.62642419 0 3 0
1.2815636 0.25075009 -0.61827713 0 4 0
1.3682629 0.26771361 -0.6208061 0 5 0
1.4793184 0.28944266 -0.62957811 0 6 0
1.5745127 0.30806834 -0.62665057 0 7 0
1.6247417 0.31789613 -0.60262263 0 8 0
1.7137014 0.33530191 -0.58996916 0 9 0
1.7705175 0.34641853 -0.56310278 0 10 0
1.8329663 0.35863721 -0.53559399 0 11 0
1.8994198 0.37163949 -0.50657499 0 12 0
1.9396261 0.37950623 -0.46843511 0 13 0
2.0081275 0.39290917 -0.43494534 0 14 0
2.0473506 0.40058354 -0.39293244 0 15 0
2.0825615 0.40747291 -0.3487618 0 16 0
2.1248128 0.41573977 -0.30427197 0 17 0
2.1692393 0.42443222 -0.25833341 0 18 0
2.2146902 0.43332511 -0.21063967 0 19 0
2.2673917 0.44363669 -0.16151769 0 20 0
2.314436 0.45284131 -0.10979082 0 21 0
2.3791397 0.46550122 -0.056364935 0 22 0
2.4171596 0.47294018 7.0314469e-05 0 23 0
2.4990273 0.48895839 0.059350703 0 24 0
2.5446157 0.49787819 0.12085833 0 25 0
2.6162601 0.51189607 0.18652229 0 26 0
2.6762114 0.52362615 0.25469211 0 27 0
2.7319968 0.53454107 0.32551298 0 28 0
2.7973518 0.54732841 0.40074515 0 29 0
2.8885636 0.56517482 0.48391372 0 30 0
2.9790134 0.58287221 0.5719189 0 31 0
1.0976238 0.23111856 -0.63040239 0 1 0
1.1609331 0.24444914 -0.63089114 0 2 0
1.2246257 0.25786042 -0.62858927 0 3 0
1.2947797 0.27263221 -0.62647146 0 4 0
1.380038 0.29058444 -0.62797153 0 5 0
1.4605744 0.30754238 -0.62341046 0 6 0
1.5643922 0.32940254 -0.62443519 0 7 0
1.6169715 0.34047377 -0.60148656 0 8 0
1.6897684 0.35580209 -0.58342344 0 9 0
1.7577233 0.37011084 -0.56066114 0 10 0
1.8214723 0.38353401 -0.53378481 0 11 0
1.8721076 0.39419591 -0.5007444 0 12 0
1.933087 0.40703589 -0.46821496 0 13 0
1.9664983 0.41407105 -0.42716873 0 14 0
2.027302 0.42687407 -0.39021739 0 15 0
2.0560672 0.43293095 -0.34532726 0 16 0
2.1003518 0.44225559 -0.30164474 0 17 0
2.137471 0.45007154 -0.25529119 0 18 0
2.1897311 0.46107557 -0.20887211 0 19 0
2.2355785 0.47072932 -0.15971509 0 20 0
2.2824099 0.48059025 -0.1085868 0 21 0
2.327389 0.49006116 -0.055299412 0 22 0
2.3910143 0.50345826 6.9756396e-05 0 23 0
2.4704721 0.52018911 0.058843337 0 24 0
2.5213542 0.53090298 0.12010212 0 25 0
2.5610774 0.53926718 0.18311967 0 26 0
2.6401176 0.55591011 0.25198856 0 27 0
2.7048256 0.5695352 0.32321379 0 28 0
2.7489796 0.57883239 0.39496183 0 29 0
2.843231 0.59867817 0.4777059 0 30 0
2.9248459 0.61586326 0.56315434 0 31 0
1.0748104 0.24242981 -0.61922938 0 1 0
1.1440922 0.25805673 -0.62368256 0 2 0
1.2155273 0.27416936 -0.62586933 0 3 0
1.2885729 0.29064521 -0.62541717 0 4 0
1.3688507 0.30875233 -0.6248278 0 5 0
1.4483029 0.32667324 -0.62010491 0 6 0
1.5546474 0.35065988 -0.62248516 0 7 0
1.611003 0.36337122 -0.60113955 0 8 0
1.6735162 0.37747142 -0.5796181 0 9 0
1.7394302 0.39233872 -0.5565604 0 10 0
1.7898012 0.40370023 -0.52614301 0 11 0
1.8388339 0.41475981 -0.49338183 0 12 0
1.897282 0.42794314 -0.46097901 0 13 0
1.9456632 0.4388558 -0.42396393 0 14 0
1.9927968 0.44948706 -0.38477471 0 15 0
2.0396116 0.46004638 -0.34363419 0 16 0
2.0744824 0.46791172 -0.29886073 0 17 0
2.1009469 0.47388098 -0.25171322 0 18 0
2.156647 0.48644441 -0.20635931 0 19 0
2.2034311 0.49699688 -0.15791045 0 20 0
2.2572458 0.50913507 -0.10772526 0 21 0
2.2842085 0.51521671 -0.05444308 0 22 0
2.360141 0.53234375 6.9070913e-05 0 23 0
2.4163876 0.54503047 0.057735015 0 24 0
2.4883502 0.56126201 0.1189005 0 25 0
2.5473146 0.57456177 0.18270491 0 26 0
2.6102378 0.58875453 0.24991538 0 27 0
2.6501505 0.5977571 0.31767023 0 28 0
2.7298315 0.61572957 0.39343664 0 29 0
2.7927299 0.62991667 0.4706876 0 30 0
2.881597 0.64996117 0.55656135 0 31 0
1.0787212 0.25959024 -0.6235593 0 1 0
1.1282393 0.27150658 -0.61709589 0 2 0
1.2159137 0.29260507 -0.62816036 0 3 0
1.2748978 0.30679941 -0.62084764 0 4 0
1.3633218 0.3280783 -0.62438363 0 5 0
1.458478 0.3509773 -0.62654823 0 6 0
1.5522612 0.37354589 -0.62360668 0 7 0
1.5875198 0.38203073 -0.59435636 0 8 0
1.644133 0.3956545 -0.5713442 0 9 0
1.709702 0.41143343 -0.54887646 0 10 0
1.7537774 0.42204002 -0.51727605 0 11 0
1.8083893 0.43518215 -0.48683459 0 12 0
1.8836727 0.45329884 -0.45920181 0 13 0
1.9120991 0.46013954 -0.41804257 0 14 0
1.9704435 0.47417989 -0.38173005 0 15 0
2.0011876 0.48157835 -0.3382872 0 16 0
2.0384159 0.4905372 -0.29464614 0 17 0
2.0820239 0.50103128 -0.25027964 0 18 0
2.122577 0.51079029 -0.20377803 0 19 0
2.1623173 0.52035356 -0.15548183 0 20 0
2.2126136 0.53245723 -0.10594811 0 21 0
2.2652833 0.54513198 -0.05417243 0 22 0
2.3299425 0.56069201 6.8414993e-05 0 23 0
2.3747075 0.57146448 0.056928754 0 24 0
2.4551573 0.59082443 0.11770649 0 25 0
2.499764 0.60155886 0.17989352 0 26 0
2.5663698 0.61758733 0.24653639 0 27 0
2.6193755 0.6303429 0.31503049 0 28 0
2.6708553 0.64273137 0.38622308 0 29 0
2.7517538 0.66219932 0.46533132 0 30 0
2.8344469 0.6820991 0.5492841 0 31 0
1.078454 0.27591273 -0.62562364 0 1 0
1.1323552 0.28970286 -0.62155151 0 2 0
1.2141573 0.31063119 -0.62948555 0 3 0
1.2783813 0.32706234 -0.62475985 0 4 0
1.3639065 0.34894317 -0.62687469 0 5 0
1.4534006 0.37183943 -0.6265893 0 6 0
1.5456492 0.39544037 -0.62316042 0 7 0
1.5958083 0.40827313 -0.59958601 0 8 0
1.6316921 0.41745368 -0.56903905 0 9 0
1.6811281 0.43010145 -0.54162407 0 10 0
1.7411366 0.44545406 -0.51537544 0 11 0
1.7928233 0.45867768 -0.48436192 0 12 0
1.84165 0.47116953 -0.45055541 0 13 0
1.8949291 0.48480052 -0.4157632 0 14 0
1.9529777 0.4996517 -0.37969303 0 15 0
1.9827414 0.50726646 -0.33636191 0 16 0
2.0225077 0.51744032 -0.29338717 0 17 0
2.0495722 0.52436459 -0.24725553 0 18 0
2.0907142 0.53489035 -0.20143342 0 19 0
2.1198204 0.54233694 -0.1529686 0 20 0
2.1668136 0.55435967 -0.10412431 0 21 0
2.2324314 0.57114744 -0.053576816 0 22 0
2.2958267 0.58736652 6.7653171e-05 0 23 0
2.3507726 0.60142392 0.056555539 0 24 0
2.4215548 0.61953294 0.1165087 0 25 0
2.4758043 0.63341218 0.17880341 0 26 0
2.5340929 0.64832479 0.24430215 0 27 0
2.5827632 0.66077662 0.31173271 0 28 0
2.6533756 0.67884225 0.38506106 0 29 0
2.7240565 0.69692522 0.4622871 0 30 0
2.7988577 0.71606249 0.54431772 0 31 0
1.0781295 0.29233196 -0.6277985 0 1 0
1.1376897 0.30848157 -0.62683904 0 2 0
1.2085875 0.32770532 -0.62896532 0 3 0
1.2632016 0.34251377 -0.61967373 0 4 0
1.3539386 0.3671169 -0.62464446 0 5 0
1.4322677 0.38835561 -0.61981148 0 6 0
1.5166316 0.41123068 -0.61377168 0 7 0
1.5853224 0.429856 -0.5978967 0 8 0
1.6324171 0.44262561 -0.57144284 0 9 0
1.6887629 0.45790362 -0.54613954 0 10 0
1.7241545 0.46749994 -0.51227695 0 11 0
1.77408 0.48103714 -0.48110899 0 12 0
1.8164819 0.49253431 -0.44607714 0 13 0
1.8672184 0.50629133 -0.41123113 0 14 0
1.9146528 0.51915306 -0.37364843 0 15 0
1.9603909 0.53155482 -0.33382681 0 16 0
2.0054214 0.54376471 -0.29200774 0 17 0
2.025665 0.54925376 -0.24529473 0 18 0
2.0669234 0.56044084 -0.19989367 0 19 0
2.1021042 0.56998003 -0.1522633 0 20 0
2.1601074 0.58570743 -0.10419424 0 21 0
2.1918325 0.59430963 -0.052801214 0 22 0
2.2600932 0.61281836 6.6851811e-05 0 23 0
2.3174181 0.62836182 0.055963736 0 24 0
2.3755033 0.64411151 0.11472484 0 25 0
2.4258766 0.6577701 0.17585957 0 26 0
2.501379 0.67824239 0.24205945 0 27 0
2.5487373 0.69108343 0.30878818 0 28 0
2.6198034 0.71035284 0.38162544 0 29 0
2.6898797 0.72935379 0.45821184 0 30 0
2.7741904 0.75221443 0.54155892 0 31 0
1.0833058 0.31044623 -0.63333529 0 1 0
1.1365298 0.32569879 -0.62870413 0 2 0
1.1945693 0.34233135 -0.62415606 0 3 0
1.2628101 0.36188731 -0.62195903 0 4 0
1.3433897 0.38497928 -0.62225616 0 5 0
1.4383147 0.41218221 -0.62491739 0 6 0
1.5072563 0.43193901 -0.6124168 0 7 0
1.5679612 0.4493354 -0.59371382 0 8 0
1.6135831 0.46240941 -0.56710869 0 9 0
1.6588399 0.47537878 -0.5386079 0 10 0
1.7050772 0.48862916 -0.50863469 0 11 0
1.7524049 0.50219202 -0.47713143 0 12 0
1.7942597 0.51418644 -0.44238204 0 13 0
1.8269577 0.52355683 -0.40397328 0 14 0
1.8891624 0.54138303 -0.37014827 0 15 0
1.9231641 0.55112696 -0.32879722 0 16 0
1.9796263 0.56730747 -0.28940445 0 17 0
2.0077269 0.57536036 -0.24409477 0 18 0
2.0390666 0.58434147 -0.19798821 0 19 0
2.0867639 0.5980103 -0.15175661 0 20 0
2.1223407 0.60820562 -0.10278192 0 21 0
2.170202 0.62192136 -0.052489202 0 22 0
2.2235191 0.63720065 6.6032997e-05 0 23 0
2.2713332 0.65090287 0.055070177 0 24 0
2.3451138 0.67204636 0.1137101 0 25 0
2.388624 0.68451518 0.17385146 0 26 0
2.463769 0.70604974 0.23937336 0 27 0
2.5210855 0.72247511 0.30665952 0 28 0
2.5919695 0.74278855 0.37908077 0 29 0
2.6588206 0.76194626 0.45473227 0 30 0
2.7414293 0.78561968 0.53730363 0 31 0
1.0597479 0.32017717 -0.62217814 0 1 0
1.1270154 0.34050038 -0.62607282 0 2 0
1.1876596 0.35882258 -0.62316549 0 3 0
1.2657523 0.3824164 -0.62603992 0 4 0
1.3442023 0.40611812 -0.62526101 0 5 0
1.4219354 0.42960334 -0.62040901 0 6 0
1.5143988 0.4575389 -0.61791652 0 7 0
1.5578085 0.47065413 -0.59235966 0 8 0
1.5888146 0.48002183 -0.56076086 0 9 0
1.6379935 0.49488002 -0.53408444 0 10 0
1.6692634 0.50432748 -0.50005335 0 11 0
1.7378592 0.52505207 -0.47516856 0 12 0
1.783 0.53869027 -0.44146174 0 13 0
1.8249135 0.55135339 -0.40522477 0 14 0
1.86895 0.56465799 -0.3677339 0 15 0
1.9067764 0.57608628 -0.32737172 0 16 0
1.9477667 0.58847052 -0.28594893 0 17 0
1.9788696 0.59786749 -0.24160203 0 18 0
2.0170796 0.60941172 -0.19668014 0 19 0
2.0476851 0.61865848 -0.14954333 0 20 0
2.1005161 0.63462001 -0.10215443 0 21 0
2.1592066 0.65235192 -0.052443728 0 22 0
2.2012961 0.66506827 6.5649001e-05 0 23 0
2.2725911 0.68660837 0.055333287 0 24 0
2.3155355 0.69958293 0.11274988 0 25 0
2.371654 0.71653783 0.17334506 0 26 0
2.4124281 0.72885668 0.23537469 0 27 0
2.4873922 0.75150532 0.30383843 0 28 0
2.5551555 0.77197832 0.37527427 0 29 0
2.6247246 0.79299694 0.45079598 0 30 0
2.6838963 0.81087428 0.52824819 0 31 0
1.0558496 0.33556336 -0.6226455 0 1 0
1.1126777 0.35362411 -0.62085629 0 2 0
1.1866145 0.37712222 -0.62538534 0 3 0
1.2676767 0.4028849 -0.6297794 0 4 0
1.3352841 0.42437145 -0.62387425 0 5 0
1.431264 0.45487517 -0.62725574 0 6 0
1.48975 0.47346282 -0.61056179 0 7 0
1.5311983 0.48663563 -0.58482975 0 8 0
1.5877126 0.50459671 -0.56286347 0 9 0
1.6156292 0.51346892 -0.52913457 0 10 0
1.6600869 0.5275982 -0.4995155 0 11 0
1.7096707 0.5433566 -0.46953958 0 12 0
1.7510031 0.55649263 -0.43546706 0 13 0
1.7952456 0.57055348 -0.4004094 0 14 0
1.8339092 0.58284128 -0.3624436 0 15 0
1.8813765 0.59792709 -0.32444701 0 16 0
1.9071369 0.60611409 -0.28122899 0 17 0
1.9535745 0.62087256 -0.23957419 0 18 0
1.9922384 0.63316047 -0.19512165 0 19 0
2.0241001 0.64328653 -0.14847812 0 20 0
2.0680559 0.65725631 -0.10102297 0 21 0
2.1149561 0.67216188 -0.051597353 0 22 0
2.1762531 0.69164282 6.519071e-05 0 23 0
2.223253 0.70658004 0.054372676 0 24 0
2.2801824 0.72467297 0.11152209 0 25 0
2.3254032 0.73904479 0.17072026 0 26 0
2.3960943 0.76151133 0.23482046 0 27 0
2.4433827 0.77654028 0.29978961 0 28 0
2.5260568 0.8028152 0.37265006 0 29 0
2.5868387 0.82213259 0.44626448 0 30 0
2.6624069 0.84614915 0.52634847 0 31 0
1.0609685 0.35398665 -0.62858778 0 1 0
1.1200587 0.37370178 -0.62789506 0 2 0
1.1845526 0.39521983 -0.62721586 0 3 0
1.251575 0.4175815 -0.62468547 0 4 0
1.3339864 0.44507766 -0.62618029 0 5 0
1.4142148 0.47184545 -0.62267995 0 6 0
1.4820211 0.49446866 -0.61023229 0 7 0
1.5295055 0.5103116 -0.58691293 0 8 0
1.5766886 0.52605397 -0.56156713 0 9 0
1.5974295 0.53297406 -0.52561861 0 10 0
1.6517488 0.55109739 -0.49932894 0 11 0
1.6997882 0.5671255 -0.46900681 0 12 0
1.7359431 0.57918841 -0.43373898 0 13 0
1.7767411 0.5928005 -0.39813387 0 14 0
1.8086047 0.60343158 -0.3591128 0 15 0
1.8588327 0.62018991 -0.32205716 0 16 0
1.8956423 0.63247126 -0.28084016 0 17 0
1.9339674 0.64525819 -0.23827793 0 18 0
1.9644397 0.65542513 -0.19329804 0 19 0
1.999584 0.6671508 -0.14736512 0 20 0
2.0539825 0.68530065 -0.10080434 0 21 0
2.0920622 0.69800574 -0.05127731 0 22 0
2.1480732 0.71669346 6.464724e-05 0 23 0
2.1807885 0.7276088 0.053583365 0 24 0
2.2466662 0.74958849 0.11039628 0 25 0
2.3044567 0.76887006 0.169973 0 26 0
2.3693538 0.79052263 0.23328486 0 27 0
2.4112577 0.80450368 0.29723048 0 28 0
2.4776177 0.8266443 0.36721212 0 29 0
2.5449033 0.84909379 0.44108149 0 30 0
2.6355872 0.87935007 0.52348101 0 31 0
1.0457863 0.36563611 -0.62262964 0 1 0
1.1160572 0.39020479 -0.62871844 0 2 0
1.1725305 0.40994945 -0.62389326 0 3 0
1.2376807 0.43272778 -0.62077844 0 4 0
1.336472 0.46726802 -0.630422 0 5 0
1.4152488 0.49481055 -0.62618947 0 6 0
1.473344 0.51512229 -0.60963297 0 7 0
1.4985737 0.52394325 -0.57786208 0 8 0
1.5371304 0.53742379 -0.55016118 0 9 0
1.5888953 0.55552226 -0.52537304 0 10 0
1.6413629 0.57386637 -0.49862131 0 11 0
1.6745634 0.58547419 -0.46431148 0 12 0
1.7175046 0.60048765 -0.43123537 0 13 0
1.7655598 0.61728913 -0.39756751 0 14 0
1.7871109 0.62482399 -0.35658431 0 15 0
1.8397012 0.64321101 -0.32030475 0 16 0
1.8682859 0.65320504 -0.27814394 0 17 0
1.9192517 0.67102408 -0.23762387 0 18 0
1.9323183 0.67559254 -0.19106929 0 19 0
1.9714668 0.68927991 -0.14600509 0 20 0
2.0284755 0.70921177 -0.10004047 0 21 0
2.0676162 0.72289646 -0.050926525 0 22 0
2.116379 0.73994529 6.400558e-05 0 23 0
2.1740694 0.76011544 0.053680096 0 24 0
2.2224014 0.77701366 0.10973922 0 25 0
2.2825594 0.79804659 0.16918308 0 26 0
2.322475 0.81200218 0.22979 0 27 0
2.3787727 0.83168548 0.29466334 0 28 0
2.450258 0.85667872 0.3649371 0 29 0
2.5070536 0.87653607 0.4366512 0 30 0
2.5816443 0.90261507 0.51528013 0 31 0
1.0422502 0.38122582 -0.62370926 0 1 0
1.11212 0.40678224 -0.62971604 0 2 0
1.1660607 0.42651221 -0.62363517 0 3 0
1.2497492 0.4571231 -0.63004875 0 4 0
1.3283138 0.48585984 -0.62978959 0 5 0
1.3958217 0.51055235 -0.62076354 0 6 0
1.4421815 0.52750945 -0.59980142 0 7 0
1.5035615 0.54996055 -0.58276123 0 8 0
1.5357094 0.56171936 -0.55247366 0 9 0
1.582065 0.57867491 -0.52579945 0 10 0
1.6084558 0.58832788 -0.4911325 0 11 0
1.6460078 0.60206342 -0.45873624 0 12 0
1.6916612 0.61876214 -0.42692655 0 13 0
1.7279491 0.6320352 -0.3910954 0 14 0
1.7810546 0.65145969 -0.35719985 0 15 0
1.8189601 0.66532445 -0.31831902 0 16 0
1.843581 0.67433012 -0.27587464 0 17 0
1.8793747 0.68742245 -0.23388094 0 18 0
1.9328829 0.70699424 -0.19210607 0 19 0
1.9537423 0.71462405 -0.14543508 0 20 0
1.9876248 0.72701728 -0.098528899 0 21 0
2.0379815 0.74543637 -0.05045424 0 22 0
2.0855126 0.76282191 6.3395804e-05 0 23 0
2.1364329 0.78144711 0.053021554 0 24 0
2.1961389 0.80328584 0.10899899 0 25 0
2.2408352 0.81963456 0.16694295 0 26 0
2.28845 0.83705074 0.22758564 0 27 0
2.3563669 0.8618927 0.29338598 0 28 0
2.4014745 0.87839186 0.35950708 0 29 0
2.4733572 0.90468454 0.43299332 0 30 0
2.5498056 0.93264723 0.51153743 0 31 0
1.0907886 0.41677478 -0.62095177 0 2 0
1.1661009 0.4455505 -0.62700319 0 3 0
1.2391584 0.47346476 -0.62806171 0 4 0
1.3233087 0.50561738 -0.6307832 0 5 0
1.3776915 0.52639627 -0.61598831 0 6 0
1.4126358 0.53974801 -0.59066606 0 7 0
1.4708508 0.56199116 -0.57314205 0 8 0
1.5066966 0.57568729 -0.54494482 0 9 0
1.5547441 0.59404558 -0.51949209 0 10 0
1.6002897 0.61144787 -0.49126107 0 11 0
1.6417007 0.62727046 -0.45999101 0 12 0
1.6818326 0.64260423 -0.42672366 0 13 0
1.7142924 0.65500671 -0.39008644 0 14 0
1.7396244 0.66468567 -0.35076293 0 15 0
1.7933042 0.68519598 -0.31551322 0 16 0
1.8063524 0.69018149 -0.27175421 0 17 0
1.8670779 0.71338385 -0.23359744 0 18 0
1.895974 0.72442466 -0.18944891 0 19 0
1.9302652 0.73752683 -0.14445849 0 20 0
1.9748039 0.75454444 -0.098418653 0 21 0
2.0131707 0.76920384 -0.050107438 0 22 0
2.0573809 0.78609592 6.287625e-05 0 23 0
2.1203275 0.81014693 0.052904226 0 24 0
2.1548023 0.82331926 0.10752126 0 25 0
2.2195306 0.84805101 0.16624305 0 26 0
2.2722869 0.86820841 0.22719081 0 27 0
2.3267672 0.88902462 0.29125515 0 28 0
2.3805249 0.90956455 0.35828316 0 29 0
2.444803 0.93412441 0.43029115 0 30 0
2.5317175 0.96733326 0.51063406 0 31 0
1.0882977 0.43377262 -0.62300444 0 2 0
1.1629741 0.46353707 -0.62882501 0 3 0
1.2307807 0.49056336 -0.62731016 0 4 0
1.2996397 0.51800913 -0.62297136 0 5 0
1.345495 0.53628612 -0.60496289 0 6 0
1.3928279 0.555152 -0.58564627 0 7 0
1.4530548 0.57915717 -0.56937945 0 8 0
1.4880981 0.59312475 -0.54123324 0 9 0
1.5326718 0.61089081 -0.51498586 0 10 0
1.5763153 0.62828618 -0.48661214 0 11 0
1.619936 0.6456725 -0.45643541 0 12 0
1.6480616 0.65688282 -0.42049766 0 13 0
1.6739773 0.66721219 -0.38304663 0 14 0
1.7345645 0.69136101 -0.35170197 0 15 0
1.7569199 0.70027137 -0.31084344 0 16 0
1.7970155 0.71625268 -0.27186403 0 17 0
1.831068 0.72982532 -0.2303755 0 18 0
1.8756526 0.74759573 -0.18846826 0 19 0
1.9032164 0.75858212 -0.14323211 0 20 0
1.9404196 0.77341056 -0.097246774 0 21 0
2.0003035 0.79727906 -0.050066091 0 22 0
2.0224872 0.80612093 6.2156112e-05 0 23 0
2.0753222 0.82717991 0.052071378 0 24 0
2.1313136 0.8494969 0.10694498 0 25 0
2.1806433 0.86915874 0.16424538 0 26 0
2.2381842 0.8920933 0.22503476 0 27 0
2.2866275 0.91140175 0.28783408 0 28 0
2.3555033 0.93885422 0.35650328 0 29 0
2.4098279 0.96050692 0.42651147 0 30 0
2.4937775 0.99396741 0.50579947 0 31 0
1.0857631 0.45087567 -0.62518382 0 2 0
1.1607225 0.48200342 -0.63127333 0 3 0
1.212665 0.50357312 -0.62168688 0 4 0
1.2861124 0.53407305 -0.62008798 0 5 0
1.3158778 0.54643345 -0.59510201 0 6 0
1.3743448 0.57071263 -0.58124989 0 7 0
1.4236048 0.59116834 -0.56109768 0 8 0
1.4720356 0.61127985 -0.53851825 0 9 0
1.5183971 0.63053191 -0.51316941 0 10 0
1.5547628 0.64563328 -0.48276222 0 11 0
1.5990132 0.66400874 -0.4531717 0 12 0
1.6391733 0.68068564 -0.4206726 0 13 0
1.6789458 0.69720167 -0.38642749 0 14 0
1.68534 0.69985694 -0.3437171 0 15 0
1.7390337 0.72215384 -0.30947602 0 16 0
1.7738352 0.73660558 -0.26992458 0 17 0
1.8030936 0.74875546 -0.2281809 0 18 0
1.8503255 0.76836902 -0.1870093 0 19 0
1.8883687 0.78416699 -0.14294477 0 20 0
1.9115641 0.7937991 -0.096360199 0 21 0
1.9704757 0.81826282 -0.049607582 0 22 0
2.0125067 0.83571672 6.2210638e-05 0 23 0
2.0489094 0.85083336 0.051708929 0 24 0
2.099653 0.87190521 0.10597168 0 25 0
2.1524997 0.89385039 0.16307254 0 26 0
2.2074344 0.91666263 0.22323938 0 27 0
2.2728097 0.94381058 0.28776577 0 28 0
2.3083625 0.95857424 0.35140917 0 29 0
2.3671889 0.9830026 0.42141196 0 30 0
2.4534783 1.0188353 0.50053233 0 31 0
1.0233999 0.44225574 -0.62656873 0 1 0
1.0774049 0.46559364 -0.62414449 0 2 0
1.1468652 0.49561048 -0.62753069 0 3 0
1.2192951 0.5269106 -0.62888801 0 4 0
1.2789928 0.55270857 -0.62040609 0 5 0
1.3127253 0.56728584 -0.5972873 0 6 0
1.3606608 0.58800089 -0.57896274 0 7 0
1.4065149 0.60781646 -0.55773371 0 8 0
1.4517772 0.62737626 -0.53433746 0 9 0
1.5053809 0.65054071 -0.5118649 0 10 0
1.5524267 0.67087126 -0.48496875 0 11 0
1.580824 0.68314302 -0.45074177 0 12 0
1.6178019 0.69912279 -0.41771325 0 13 0
1.6500278 0.71304893 -0.3820816 0 14 0
1.6692135 0.72134 -0.34249881 0 15 0
1.7110043 0.73939955 -0.30633995 0 16 0
1.7516422 0.75696105 -0.26816875 0 17 0
1.772939 0.76616424 -0.22572953 0 18 0
1.8199829 0.78649396 -0.18506145 0 19 0
1.8593378 0.80350095 -0.14160328 0 20 0
1.9028713 0.82231367 -0.096505441 0 21 0
1.9321431 0.83496332 -0.048938412 0 22 0
1.9802399 0.855748 6.1585524e-05 0 23 0
2.0265491 0.87576026 0.051455695 0 24 0
2.082164 0.89979392 0.10572819 0 25 0
2.1166604 0.91470128 0.16133274 0 26 0
2.1906071 0.94665688 0.2228851 0 27 0
2.2296331 0.96352172 0.28401613 0 28 0
2.2839491 0.98699403 0.34980747 0 29 0
2.3623693 1.0208828 0.42311195 0 30 0
2.4223473 1.0468019 0.49718714 0 31 0
0.95742333 0.43010885 -0.62246108 0 0 0
1.0084374 0.45302621 -0.62131441 0 1 0
1.0781265 0.48433304 -0.62851417 0 2 0
1.1424133 0.51321298 -0.62904972 0 3 0
1.2025727 0.54023874 -0.62418735 0 4 0
1.2652682 0.56840378 -0.61763185 0 5 0
1.3134319 0.59004062 -0.60138983 0 6 0
1.3404343 0.60217112 -0.57396501 0 7 0
1.3964332 0.6273278 -0.55723947 0 8 0
1.4267241 0.6409356 -0.52843893 0 9 0
1.4706194 0.6606549 -0.50320899 0 10 0
1.5296131 0.68715698 -0.48086527 0 11 0
1.5598037 0.70071971 -0.44756219 0 12 0
1.5855683 0.7122941 -0.41198084 0 13 0
1.6078068 0.72228438 -0.37466049 0 14 0
1.6561615 0.74400705 -0.34197077 0 15 0
1.6914762 0.75987172 -0.30475974 0 16 0
1.7248157 0.774849 -0.26573244 0 17 0
1.7765248 0.7980786 -0.22761717 0 18 0
1.8075097 0.81199807 -0.18495601 0 19 0
1.8366235 0.82507712 -0.1407584 0 20 0
1.8746785 0.84217274 -0.095677167 0 21 0
1.9152225 0.86038655 -0.048816759 0 22 0
1.955745 0.8785907 6.1208571e-05 0 23 0
2.0051272 0.9007749 0.051233899 0 24 0
2.058171 0.92460412 0.10517111 0 25 0
2.0885987 0.93827331 0.16020107 0 26 0
2.1399286 0.96133262 0.21910638 0 27 0
2.2006063 0.98859119 0.28209224 0 28 0
2.255759 1.0133678 0.3476758 0 29 0
2.3090823 1.0373225 0.41618463 0 30 0
2.3979118 1.0772278 0.49528569 0 31 0
0.95947593 0.44764277 -0.62789696 0 0 0
1.0109472 0.47165662 -0.62695593 0 1 0
1.065412 0.49706718 -0.62518573 0 2 0
1.1287049 0.52659643 -0.62558776 0 3 0
1.1917676 0.55601829 -0.62264603 0 4 0
1.2539114 0.58501142 -0.61611247 0 5 0
1.3136262 0.61287129 -0.60543346 0 6 0
1.352767 0.63113242 -0.58305424 0 7 0
1.3840271 0.64571679 -0.55592012 0 8 0
1.4159622 0.6606161 -0.52790111 0 9 0
1.4574407 0.67996788 -0.50197846 0 10 0
1.500939 0.70026195 -0.47495332 0 11 0
1.5222045 0.71018338 -0.43964538 0 12 0
1.5729935 0.73387891 -0.41140074 0 13 0
1.5980718 0.74557918 -0.37484041 0 14 0
1.6380837 0.7642467 -0.34046185 0 15 0
1.6837156 0.78553623 -0.30535603 0 16 0
1.7096474 0.79763472 -0.26512733 0 17 0
1.7324294 0.8082636 -0.22342683 0 18 0
1.7708234 0.82617629 -0.1823934 0 19 0
1.8065571 0.84284782 -0.13936442 0 20 0
1.8415902 0.85919249 -0.094606407 0 21 0
1.8932279 0.88328403 -0.048573419 0 22 0
1.9206331 0.89606988 6.0504888e-05 0 23 0
1.9719561 0.92001462 0.050717615 0 24 0
2.0186338 0.94179207 0.10382898 0 25 0
2.0756621 0.96839863 0.1602556 0 26 0
2.1259146 0.99184376 0.21910261 0 27 0
2.1675825 1.011284 0.27968583 0 28 0
2.2216754 1.036521 0.34467396 0 29 0
2.2947791 1.0706275 0.41632605 0 30 0
2.3710432 1.1062084 0.49295601 0 31 0
0.94792509 0.45888624 -0.62457228 0 0 0
0.98515046 0.47690687 -0.61512804 0 1 0
1.0690002 0.51749814 -0.63157314 0 2 0
1.124897 0.54455757 -0.62773305 0 3 0
1.1806995 0.57157129 -0.62107414 0 4 0
1.2575406 0.60876966 -0.62211335 0 5 0
1.3065294 0.63248497 -0.606273 0 6 0
1.3465761 0.65187138 -0.58434761 0 7 0
1.3745347 0.66540605 -0.55587596 0 8 0
1.4281737 0.69137233 -0.53608823 0 9 0
1.4444332 0.69924355 -0.50089425 0 10 0
1.4790494 0.71600109 -0.47122136 0 11 0
1.5126278 0.73225623 -0.43986154 0 12 0
1.5364735 0.74379987 -0.40459231 0 13 0
1.5830241 0.76633477 -0.3738454 0 14 0
